# .PCD v0.7 - Point Cloud Data file format
VERSION 0.7
FIELDS x y z intensity
SIZE 4 4 4 4
TYPE F F F F
COUNT 1 1 1 1
WIDTH 1221
HEIGHT 1
VIEWPOINT 0 0 0 1 0 0 0
POINTS 1221
DATA ascii
24.782082 -40.047398 5.5074015 238.25
4.4885149 -7.2533588 -2.0210824 238.25
24.7665 -40.022221 6.6146193 238.25
4.9525867 -8.0032911 -2.0005262 238.25
5.5258975 -8.9297504 -1.9785353 238.25
6.332921 -10.310137 -1.9879217 238.44
7.3308005 -11.934708 -1.9684644 238.44
7.4546294 -12.136304 -1.665601 238.44
11.246383 -18.309364 -1.5025544 238.44
2.2424841 -3.6508145 -1.9075948 238.44
12.105443 -19.707933 -1.0785927 238.44
2.3770995 -3.8699713 -1.8970518 238.44
12.353936 -20.112484 -0.54800683 238.44
2.2222042 -3.6177983 -1.6579224 238.44
24.786758 -40.353397 0 238.44
2.2417467 -3.6496136 -1.5589278 238.44
24.807289 -40.386826 1.1004238 238.44
2.5526321 -4.1557422 -1.6479622 238.44
24.875917 -40.49855 2.2164395 238.44
2.5301354 -4.1191173 -1.5084378 238.44
24.807829 -40.387703 3.314409 238.44
2.5709221 -4.1855187 -1.4085069 238.44
24.792149 -40.362175 4.419241 238.44
2.9903784 -4.868403 -1.4957031 238.44
24.782225 -40.346016 5.5371361 238.44
4.4797158 -7.2930775 -2.0279992 238.44
24.767366 -40.321827 6.6505256 238.44
4.9260197 -8.0196705 -2.0005262 238.44
5.5024271 -8.9580746 -1.9807571 238.44
6.3187494 -10.355837 -1.9931096 238.61
7.2912312 -11.949643 -1.967351 238.61
7.3233981 -12.002362 -1.6442293 238.61
10.040261 -16.455046 -1.7983879 238.61
11.183695 -18.329027 -1.5014384 238.61
2.2230773 -3.643415 -1.9002736 238.61
11.335152 -18.57725 -1.0148666 238.61
2.3579166 -3.8644042 -1.890885 238.61
12.264005 -20.099554 -0.5466606 238.61
2.2570674 -3.6991217 -1.6921139 238.61
24.796093 -40.638466 0 238.61
2.5833113 -4.2338047 -1.8051823 238.61
24.821697 -40.680431 1.1064122 238.61
2.5333822 -4.1519756 -1.6434807 238.61
24.898207 -40.805824 2.2292032 238.61
2.532819 -4.151053 -1.5173739 238.61
24.826099 -40.687645 3.3329644 238.61
2.7177095 -4.4540706 -1.4961596 238.61
24.805048 -40.653145 4.4430213 238.61
4.1046133 -6.7270761 -2.0629864 238.61
24.79381 -40.634727 5.5666385 238.61
4.4621115 -7.3129821 -2.0298438 238.61
24.759031 -40.577728 6.6805873 238.61
4.9093356 -8.0459404 -2.003437 238.61
5.4614921 -8.9508724 -1.9755728 238.61
6.2808347 -10.362725 -1.99084 238.78
7.2506108 -11.962755 -1.9659592 238.78
6.9438562 -11.456642 -1.5666406 238.78
11.129263 -18.362129 -1.5014384 238.78
2.270026 -3.7453072 -1.9498955 238.78
11.232347 -18.532207 -1.0105809 238.78
2.1991303 -3.6283367 -1.7721747 238.78
12.148351 -20.043518 -0.54415387 238.78
2.3764436 -3.9208853 -1.7903234 238.78
24.824684 -40.958153 0 238.78
2.5512555 -4.2093067 -1.7915015 238.78
24.852196 -41.003544 1.1131897 238.78
2.5269446 -4.1691961 -1.6473221 238.78
24.935459 -41.140923 2.2434578 238.78
2.5175228 -4.1536512 -1.5155867 238.78
24.837635 -40.979523 3.350822 238.78
2.690531 -4.4390969 -1.4884417 238.78
24.810242 -40.934326 4.4656868 238.78
4.0715985 -6.7177153 -2.0564017 238.78
24.813166 -40.939148 5.5982313 238.78
4.4464464 -7.336175 -2.0326104 238.78
24.7689 -40.866116 6.7159371 238.78
4.8976092 -8.0805473 -2.0084269 238.78
5.4023108 -8.9132519 -1.9637231 238.78
6.2307196 -10.349191 -1.9846793 238.95
7.0461035 -11.703539 -1.5975367 238.95
10.286522 -17.085855 -1.8606255 238.95
11.123098 -18.475405 -1.5079955 238.95
2.2136688 -3.6768916 -1.9108487 238.95
11.162886 -18.541491 -1.0092765 238.95
2.1226759 -3.5257528 -1.7189864 238.95
12.058919 -20.029799 -0.54280764 238.95
2.3033013 -3.8257709 -1.7437649 238.95
24.838186 -41.256088 0 238.95
2.5319693 -4.2055869 -1.7867132 238.95
24.866558 -41.303215 1.1193173 238.95
2.2096491 -3.6702151 -1.447569 238.95
24.977125 -41.486866 2.2582715 238.95
2.5593486 -4.2510638 -1.548353 238.95
24.848686 -41.273529 3.3688192 238.95
2.7586603 -4.5821195 -1.5336462 238.95
24.832474 -41.246601 4.4916968 238.95
3.0377386 -5.0456672 -1.5417948 238.95
24.824783 -41.233829 5.6284304 238.95
4.4346976 -7.3660083 -2.0372217 238.95
24.760929 -41.127766 6.7468338 238.95
4.8736124 -8.0950432 -2.0084269 238.95
5.43261 -9.0235357 -1.9844601 238.95
6.2291512 -10.412277 -1.9934338 239.11
6.9050236 -11.542025 -1.890249 239.11
7.0123739 -11.721465 -1.5973043 239.11
10.252059 -17.13673 -1.8630407 239.11
11.088875 -18.5355 -1.5103672 239.11
2.2127724 -3.6987381 -1.9189835 239.11
11.124398 -18.594879 -1.0104877 239.11
2.305155 -3.8531592 -1.875468 239.11
11.986515 -20.035942 -0.54206491 239.11
2.3050427 -3.8529716 -1.753222 239.11
24.888193 -41.601616 0 239.11
2.5588098 -4.2771535 -1.8140749 239.11
24.906124 -41.631588 1.126327 239.11
2.1974459 -3.6731193 -1.4462886 239.11
24.901175 -41.623314 2.261905 239.11
2.5572691 -4.2745781 -1.5543104 239.11
24.870586 -41.572186 3.3875139 239.11
24.859301 -41.553322 4.5175204 239.11
3.0226433 -5.0524702 -1.5412884 239.11
24.838039 -41.517784 5.6577005 239.11
4.4071169 -7.366673 -2.0339937 239.11
4.854001 -8.113658 -2.0096743 239.11
5.4073906 -9.0386705 -1.9844601 239.11
6.1972218 -10.429017 -1.9931096 239.28
6.9000878 -11.611837 -1.8983212 239.28
7.1033964 -11.953976 -1.6261097 239.28
8.2276678 -13.84596 -1.50262 239.28
11.081732 -18.648932 -1.5169243 239.28
2.1532538 -3.6236107 -1.8766829 239.28
11.045704 -18.588303 -1.0083449 239.28
2.2955978 -3.8631549 -1.8770097 239.28
12.038348 -20.258776 -0.54712486 239.28
2.324055 -3.9110444 -1.7765013 239.28
24.887251 -41.881599 0 239.28
2.4769828 -4.1683993 -1.7648239 239.28
24.919359 -41.935631 1.1325475 239.28
2.5601561 -4.3083677 -1.6934189 239.28
2.5855377 -4.3510814 -1.5793319 239.28
24.892874 -41.891064 3.4074643 239.28
2.6006212 -4.3764644 -1.4597754 239.28
24.868145 -41.849445 4.5416727 239.28
2.9829297 -5.0198336 -1.5286257 239.28
24.85174 -41.821838 5.6890612 239.28
4.3912053 -7.3897552 -2.0367606 239.28
4.830905 -8.1297054 -2.0100901 239.28
5.3915925 -9.0732613 -1.9885335 239.28
6.163425 -10.446734 -1.9927853 239.46001
6.9038296 -11.701689 -1.9094549 239.46001
7.1273804 -12.080597 -1.6402801 239.46001
7.8289571 -13.269738 -1.4374098 239.46001
11.051476 -18.731768 -1.5208306 239.46001
2.152072 -3.6476674 -1.8856311 239.46001
11.914108 -20.193892 -1.0934062 239.46001
2.3425291 -3.9704838 -1.9255731 239.46001
12.079292 -20.473871 -0.55190629 239.46001
2.3240633 -3.9391854 -1.7859585 239.46001
24.888685 -42.18523 0 239.46001
2.4123056 -4.0887523 -1.7278857 239.46001
24.927702 -42.251358 1.1389537 239.46001
2.4647703 -4.1776776 -1.638999 239.46001
2.5524528 -4.3262954 -1.5674169 239.46001
24.899025 -42.202755 3.4264381 239.46001
2.6523123 -4.495553 -1.4967109 239.46001
24.87113 -42.155476 4.5663819 239.46001
2.7931273 -4.7342281 -1.4389747 239.46001
24.868612 -42.151207 5.7232094 239.46001
4.3798347 -7.4236279 -2.042294 239.46001
4.8113055 -8.154952 -2.0125852 239.46001
5.3570695 -9.079998 -1.9863117 239.46001
6.1383882 -10.475192 -1.9947308 239.63
6.823019 -11.643518 -1.896651 239.63
6.8896365 -11.757201 -1.5935876 239.63
7.5136895 -12.822151 -1.386505 239.63
11.07352 -18.89702 -1.5315732 239.63
2.1403158 -3.6524603 -1.8848176 239.63
11.926865 -20.353258 -1.1001142 239.63
2.3326042 -3.9806013 -1.9271147 239.63
12.029612 -20.528597 -0.55241692 239.63
2.4206839 -4.1309099 -1.8696185 239.63
24.922163 -42.529804 0 239.63
2.3830602 -4.0667048 -1.7155731 239.63
24.967005 -42.606327 1.1465204 239.63
2.4399107 -4.1637206 -1.6306759 239.63
25.006216 -42.673241 2.3065319 239.63
2.5193348 -4.2992582 -1.5549061 239.63
24.910881 -42.510551 3.4454117 239.63
2.6943657 -4.5979495 -1.5281335 239.63
24.881859 -42.461025 4.5914626 239.63
3.0001416 -5.1197577 -1.5534444 239.63
24.881029 -42.459606 5.7550349 239.63
4.3676281 -7.4533811 -2.046905 239.63
4.7950006 -8.1826944 -2.0159118 239.63
5.3310986 -9.0975485 -1.9866819 239.63
6.1173587 -10.514895 -1.9986217 239.81
6.8043332 -11.69571 -1.9016613 239.81
6.8576608 -11.787373 -1.5947491 239.81
8.095233 -13.914589 -1.5018768 239.81
11.088342 -19.05933 -1.5418971 239.81
2.1563945 -3.7065444 -1.9092218 239.81
11.87291 -20.407896 -1.1010458 239.81
2.3070948 -3.9655774 -1.9163229 239.81
12.089738 -20.780592 -0.55817318 239.81
2.390831 -4.1095085 -1.8565239 239.81
24.911129 -42.818794 0 239.81
2.4222522 -4.1635175 -1.7531953 239.81
24.976812 -42.931694 1.1531587 239.81
2.4277706 -4.1730027 -1.6313162 239.81
25.021723 -43.008888 2.3204136 239.81
2.4318893 -4.1800823 -1.5090334 239.81
24.906631 -42.811062 3.4634089 239.81
2.5803294 -4.4352303 -1.4713522 239.81
24.891541 -42.785122 4.6180296 239.81
2.6094563 -4.4852953 -1.3584408 239.81
24.888365 -42.779663 5.7877893 239.81
4.3510418 -7.4788404 -2.050133 239.81
4.7574654 -8.1774263 -2.010922 239.81
5.3005147 -9.1108541 -1.9859414 239.81
6.0969944 -10.551796 -2.0021884 239.98
6.8161721 -11.796445 -1.9147435 239.98
6.8862624 -11.917747 -1.6096164 239.98
11.065681 -19.150879 -1.5466405 239.98
2.1920063 -3.7936077 -1.950709 239.98
11.756334 -20.346163 -1.0958285 239.98
2.2731593 -3.9340553 -1.8978226 239.98
11.91699 -20.624205 -0.55302042 239.98
2.3133829 -4.0036688 -1.8056004 239.98
12.691668 -21.964903 0 239.98
2.5104961 -4.3448033 -1.8263875 239.98
24.999371 -43.265297 1.1601219 239.98
2.3044682 -3.9882405 -1.5564088 239.98
25.037933 -43.332035 2.3338296 239.98
2.4041932 -4.16083 -1.4995015 239.98
24.916248 -43.121437 3.4825222 239.98
2.5988994 -4.4977989 -1.4895443 239.98
24.904961 -43.101906 4.6442251 239.98
2.8400688 -4.9151807 -1.4860795 239.98
24.895493 -43.085518 5.81915 239.98
3.0251198 -5.2354398 -1.4326953 239.98
4.7478623 -8.2169142 -2.0171592 239.98
5.2714925 -9.1231365 -1.9852008 239.98
6.0646772 -10.568128 -2.0018642 240.14999
6.757483 -11.775391 -1.9080632 240.14999
6.7460666 -11.755497 -1.5849924 240.14999
7.6844473 -13.390691 -1.4403824 240.14999
11.036615 -19.23208 -1.5505469 240.14999
2.2180262 -3.8650672 -1.9840614 240.14999
11.667077 -20.330704 -1.0931267 240.14999
2.2697437 -3.9551885 -1.9047602 240.14999
12.110515 -21.103426 -0.56490433 240.14999
2.2708936 -3.9571922 -1.7815937 240.14999
12.116764 -21.114317 0 240.14999
2.3432481 -4.0832748 -1.7135209 240.14999
24.995291 -43.556053 1.1659247 240.14999
2.2850802 -3.9819133 -1.5512869 240.14999
25.062389 -43.672981 2.3481774 240.14999
2.3025117 -4.0122886 -1.443501 240.14999
24.93417 -43.449551 3.5030305 240.14999
2.5970254 -4.5254998 -1.4961596 240.14999
24.929604 -43.441593 4.6728358 240.14999
2.8283617 -4.9286199 -1.487599 240.14999
24.921787 -43.427971 5.8553891 240.14999
4.3153028 -7.5197196 -2.0542829 240.14999
4.7283301 -8.2394485 -2.0192382 240.14999
5.2483134 -9.1455564 -1.9866819 240.14999
6.0176592 -10.558641 -1.9966763 240.32001
6.8362732 -11.994989 -1.9403514 240.32001
7.0367317 -12.346717 -1.6618842 240.32001
11.00025 -19.301144 -1.5534767 240.32001
2.2101674 -3.8779807 -1.9873153 240.32001
11.61165 -20.373911 -1.0935925 240.32001
2.2707918 -3.9843526 -1.915552 240.32001
12.107249 -21.243494 -0.5676896 240.32001
2.2213209 -3.8975508 -1.751767 240.32001
12.104569 -21.238792 0 240.32001
2.3311224 -4.0902095 -1.7135209 240.32001
12.020125 -21.090626 0.56360453 240.32001
2.318289 -4.0676918 -1.5820181 240.32001
25.075148 -43.997093 2.3615935 240.32001
2.2669628 -3.9776344 -1.4286072 240.32001
24.951353 -43.779881 3.5236785 240.32001
24.935686 -43.752392 4.6982884 240.32001
3.0388622 -5.3320165 -1.6066272 240.32001
24.930529 -43.743343 5.8879113 240.32001
4.3016453 -7.5477076 -2.0584331 240.32001
4.7106433 -8.2653389 -2.0221491 240.32001
5.2231016 -9.1645031 -1.9874226 240.32001
5.9969978 -10.595343 -2.0002429 240.49001
6.8747959 -12.146214 -1.9615057 240.49001
8.0060349 -14.144858 -1.5163679 240.49001
10.969468 -19.380577 -1.5572435 240.49001
2.1626523 -3.8209188 -1.9547763 240.49001
11.587559 -20.472603 -1.0970397 240.49001
2.2498696 -3.9750121 -1.9078436 240.49001
12.223414 -21.596016 -0.57613832 240.49001
2.3097727 -4.0808477 -1.8310622 240.49001
2.3078675 -4.0774813 -1.7053125 240.49001
12.011663 -21.221901 0.5661577 240.49001
2.4499395 -4.3284907 -1.6806142 240.49001
25.08522 -44.319927 2.3749163 240.49001
2.4140837 -4.2651415 -1.5292889 240.49001
24.972689 -44.121109 3.5451634 240.49001
2.4981539 -4.4136744 -1.4542627 240.49001
24.951914 -44.084404 4.7259703 240.49001
2.9525039 -5.2164087 -1.569146 240.49001
24.943489 -44.069519 5.9218273 240.49001
4.2840247 -7.5689054 -2.0607386 240.49001
4.683208 -8.2741718 -2.0209017 240.49001
5.1716838 -9.1371994 -1.978165 240.49001
5.9627156 -10.61241 -1.9999187 240.67
6.8395143 -12.172932 -1.9623407 240.67
6.9397721 -12.351371 -1.6567736 240.67
7.7928066 -13.869596 -1.4842273 240.67
10.895823 -19.39233 -1.5554298 240.67
2.146163 -3.8197298 -1.950709 240.67
11.61126 -20.665661 -1.1054248 240.67
2.3051696 -4.1027288 -1.965657 240.67
12.111434 -21.555868 -0.57404935 240.67
2.3097169 -4.1108222 -1.8412468 240.67
12.651562 -22.517183 0 240.67
2.2692697 -4.0388341 -1.6861593 240.67
36.101204 -64.252731 1.7110997 240.67
2.3555822 -4.1924529 -1.6249138 240.67
36.104023 -64.257751 3.4372048 240.67
2.3632643 -4.2061253 -1.505459 240.67
24.979572 -44.458511 3.5659509 240.67
2.527595 -4.4986005 -1.4796213 240.67
24.965464 -44.433403 4.7549524 240.67
2.9635861 -5.2745752 -1.5838345 240.67
24.95866 -44.421291 5.9585309 240.67
4.2611785 -7.5840235 -2.0611999 240.67
4.6514411 -8.2786102 -2.0184066 240.67
5.1506548 -9.1671085 -1.9811274 240.67
5.9331245 -10.633502 -2.0005672 240.84
6.8506522 -12.277918 -1.9759797 240.84
6.9940777 -12.534969 -1.6786098 240.84
7.8903713 -14.141331 -1.5107944 240.84
10.775049 -19.311325 -1.5463616 240.84
2.1357105 -3.8276763 -1.9515225 240.84
11.687149 -20.946014 -1.1185613 240.84
2.2552197 -4.0418639 -1.9332815 240.84
12.088342 -21.665043 -0.57599908 240.84
2.318388 -4.155076 -1.8579788 240.84
12.435597 -22.287405 0 240.84
2.2838323 -4.0931444 -1.7059965 240.84
35.85487 -64.26004 1.7084538 240.84
2.2803538 -4.0869098 -1.5813779 240.84
35.855774 -64.261658 3.4317079 240.84
2.4475214 -4.3865118 -1.5674169 240.84
2.5170467 -4.511117 -1.4812752 240.84
2.9592359 -5.3036199 -1.5899127 240.84
4.2377095 -7.594934 -2.0607386 240.84
4.6239977 -8.2872505 -2.0171592 240.84
5.1339669 -9.201231 -1.9852008 240.84
5.9082441 -10.663143 -2.0028369 241.00999
6.812273 -12.294725 -1.975423 241.00999
6.9703336 -12.579991 -1.6818621 241.00999
7.74125 -13.971334 -1.4901724 241.00999
10.590066 -19.112852 -1.5279458 241.00999
2.1261151 -3.8371925 -1.9531493 241.00999
11.644315 -21.015549 -1.1204246 241.00999
2.2682612 -4.0937362 -1.9548652 241.00999
12.233322 -22.078585 -0.58602613 241.00999
2.2744474 -4.1049013 -1.8325171 241.00999
35.62035 -64.28727 0 241.00999
2.3746045 -4.2856641 -1.783293 241.00999
35.614628 -64.276947 1.7060863 241.00999
2.3288257 -4.203043 -1.6236334 241.00999
35.621376 -64.289124 3.4275153 241.00999
2.4872384 -4.4889441 -1.6013746 241.00999
2.4738343 -4.4647527 -1.4636344 241.00999
2.8562791 -5.1549859 -1.5428078 241.00999
4.2170424 -7.6108785 -2.061661 241.00999
4.6022329 -8.3060665 -2.0184066 241.00999
5.1266475 -9.2525253 -1.9929771 241.00999
5.8728132 -10.678193 -2.0021884 241.19
6.7850676 -12.336891 -1.9787631 241.19
6.8589811 -12.471284 -1.6644396 241.19
7.8124771 -14.20497 -1.5124664 241.19
10.803025 -19.642509 -1.5675675 241.19
2.1131692 -3.842252 -1.9523358 241.19
11.61482 -21.118547 -1.1239649 241.19
2.2633934 -4.1153955 -1.9618028 241.19
12.243876 -22.262321 -0.58987916 241.19
2.3288748 -4.2344565 -1.887078 241.19
35.357487 -64.288452 0 241.19
2.3421097 -4.2585206 -1.7689282 241.19
35.358562 -64.290405 1.7034867 241.19
2.3420899 -4.2584848 -1.6422001 241.19
35.350876 -64.276428 3.4209006 241.19
2.4887648 -4.5251751 -1.6115024 241.19
2.4607222 -4.4741874 -1.4641856 241.19
4.1968627 -7.6309099 -2.0635054 241.19
4.5846009 -8.3359118 -2.0221491 241.19
5.1079731 -9.287529 -1.9970505 241.19
5.8335376 -10.681714 -1.9995944 241.36
6.7645712 -12.386518 -1.983495 241.36
6.8990698 -12.632796 -1.6832559 241.36
7.7951117 -14.273528 -1.5172969 241.36
10.756173 -19.695488 -1.5692416 241.36
2.1026356 -3.8501084 -1.9531493 241.36
11.585624 -21.214285 -1.1272258 241.36
2.2202137 -4.0654039 -1.9348232 241.36
12.168184 -22.281004 -0.58941489 241.36
2.3207653 -4.2495232 -1.8907154 241.36
11.989327 -21.953501 0 241.36
2.3961232 -4.3875098 -1.8195472 241.36
11.975555 -21.928284 0.58008415 241.36
2.3358016 -4.2770557 -1.6466818 241.36
35.117874 -64.303886 3.4168012 241.36
2.3682613 -4.3364925 -1.5417997 241.36
4.1751356 -7.6450367 -2.0639665 241.36
4.5701618 -8.3683643 -2.0267231 241.36
5.0879307 -9.3164434 -2.0000129 241.36
5.7951975 -10.67787 -1.9960278 241.50999
6.73212 -12.404185 -1.983495 241.50999
6.8365993 -12.596692 -1.6760546 241.50999
9.6213932 -17.727779 -1.8818048 241.50999
10.757868 -19.821777 -1.5770544 241.50999
2.0951633 -3.8604174 -1.9555898 241.50999
11.558635 -21.29722 -1.1300207 241.50999
2.0370233 -3.7532921 -1.7837374 241.50999
12.188019 -22.456884 -0.59322149 241.50999
2.2012155 -4.0558224 -1.8019631 241.50999
11.986191 -22.085009 0 241.50999
2.442003 -4.4994826 -1.8633257 241.50999
11.961979 -22.040398 0.58221954 241.50999
2.2857325 -4.2115483 -1.6191517 241.50999
34.896042 -64.297272 3.4115839 241.50999
2.3232043 -4.2805915 -1.5197569 241.50999
2.3137271 -4.2631297 -1.390866 241.50999
3.0550618 -5.6290665 -1.5175411 241.50999
4.5501041 -8.3837385 -2.0275548 241.50999
5.0550852 -9.3141851 -1.9966801 241.50999
5.764431 -10.701236 -1.9970005 241.69
6.6846647 -12.40958 -1.9809899 241.69
6.7423525 -12.516673 -1.6625811 241.69
9.5930395 -17.808762 -1.8871926 241.69
10.754206 -19.964378 -1.5857042 241.69
2.0812922 -3.8637633 -1.9539628 241.69
11.508724 -21.365088 -1.1316978 241.69
2.184509 -4.0553775 -1.9240314 241.69
12.131632 -22.521467 -0.59391779 241.69
2.2140849 -4.1102829 -1.8230599 241.69
11.997371 -22.272223 0 241.69
2.3663568 -4.3929648 -1.8161269 241.69
11.944831 -22.174686 0.58477277 241.69
2.281476 -4.2353897 -1.6255541 241.69
34.643658 -64.313362 3.406646 241.69
2.5795624 -4.788765 -1.6972903 241.69
2.3030579 -4.275455 -1.39252 241.69
2.8040745 -5.2055545 -1.5478729 241.69
4.1254969 -7.6586766 -2.0611999 241.69
4.5283823 -8.4066038 -2.029634 241.69
5.0230026 -9.3248291 -1.9955692 241.69
5.7354469 -10.723513 -1.9979732 241.86
6.6608925 -12.45381 -1.9848868 241.86
6.7051849 -12.536623 -1.6625811 241.86
9.596508 -17.942503 -1.8983396 241.86
10.732561 -20.066572 -1.5912846 241.86
2.0724041 -3.8747551 -1.9564033 241.86
11.458474 -21.423803 -1.1330022 241.86
2.2333934 -4.175755 -1.9779906 241.86
12.444785 -23.267902 -0.61262572 241.86
2.1667337 -4.0511227 -1.7939608 241.86
11.980285 -22.399427 0 241.86
2.340903 -4.3767653 -1.8065504 241.86
11.950653 -22.344027 0.58830082 241.86
2.3323462 -4.3607664 -1.6710107 241.86
34.401806 -64.32074 3.4016149 241.86
2.2835059 -4.2694502 -1.5108207 241.86
2.4753323 -4.6281061 -1.50498 241.86
2.8524923 -5.3332787 -1.583328 241.86
2.9315884 -5.481164 -1.4728125 241.86
4.5080328 -8.428628 -2.031713 241.86
4.9916053 -9.3327589 -1.9940881 241.86
5.7008047 -10.739735 -1.997649 242.03999
6.6254492 -12.481671 -1.9860002 242.03999
6.6210613 -12.473406 -1.6514306 242.03999
8.016367 -15.102018 -1.5951403 242.03999
10.678822 -20.117811 -1.5926799 242.03999
2.0585077 -3.8780191 -1.9547763 242.03999
11.514756 -21.692627 -1.1453001 242.03999
2.247087 -4.233283 -2.0018868 242.03999
12.446623 -23.44817 -0.61633945 242.03999
2.1400206 -4.0315809 -1.7823212 242.03999
11.96143 -22.534115 0 242.03999
2.3791299 -4.4820385 -1.8469088 242.03999
11.950707 -22.513916 0.59178239 242.03999
2.415467 -4.5504937 -1.7407962 242.03999
34.156479 -64.347321 3.3973293 242.03999
2.3318467 -4.3929615 -1.5519274 242.03999
2.4409499 -4.5985012 -1.492852 242.03999
2.7776663 -5.2328405 -1.5509119 242.03999
4.0558248 -7.6407609 -2.0496719 242.03999
4.4907036 -8.4600277 -2.0358713 242.03999
4.9696331 -9.3622828 -1.9970505 242.03999
5.6689138 -10.756602 -1.997649 242.21001
6.5523739 -12.432942 -1.9751446 242.21001
7.042469 -13.362884 -1.7664198 242.21001
7.8842506 -14.96014 -1.5776767 242.21001
10.636758 -20.182943 -1.5953306 242.21001
2.0512516 -3.8921914 -1.9588437 242.21001
11.471766 -21.767347 -1.1474429 242.21001
2.2525856 -4.2742167 -2.0180745 242.21001
11.956568 -22.687244 -0.59540331 242.21001
2.1627929 -4.1038375 -1.8114203 242.21001
11.949533 -22.673897 0 242.21001
2.3658209 -4.4890776 -1.8469088 242.21001
33.917648 -64.357765 1.6890031 242.21001
2.378103 -4.5123825 -1.7235099 242.21001
33.915108 -64.352943 3.3922982 242.21001
2.4363 -4.6228099 -1.6305664 242.21001
2.4299843 -4.6108255 -1.4945058 242.21001
2.4238529 -4.5991917 -1.3609732 242.21001
4.0503759 -7.685473 -2.0584331 242.21001
4.4646702 -8.4715843 -2.0354555 242.21001
4.9299202 -9.3543825 -1.9922365 242.21001
5.647953 -10.794359 -2.0015399 242.38
6.5613656 -12.540071 -1.989062 242.38
6.9862127 -13.352038 -1.7622384 242.38
7.8444443 -14.99229 -1.5786055 242.38
9.5149822 -18.185019 -1.4351697 242.38
2.0388472 -3.8966415 -1.9580302 242.38
11.431211 -21.847313 -1.1498653 242.38
2.1996818 -4.2040286 -1.9818448 242.38
12.036588 -23.004307 -0.60278434 242.38
2.1739268 -4.1548057 -1.8310622 242.38
33.675365 -64.360306 0 242.38
2.2496786 -4.2995825 -1.7661921 242.38
33.657951 -64.327019 1.6855679 242.38
2.3357162 -4.4640169 -1.7023821 242.38
33.673077 -64.355934 3.3871741 242.38
2.6137593 -4.9954123 -1.7592483 242.38
2.7349045 -5.2269449 -1.5443274 242.38
4.0248485 -7.6922836 -2.0570498 242.38
4.4395151 -8.4847937 -2.0354555 242.38
4.883009 -9.3323984 -1.9844601 242.38
5.6167421 -10.817304 -2.0025127 242.56
6.525588 -12.567653 -1.9901754 242.56
6.8618455 -13.215253 -1.7413312 242.56
7.9450483 -15.301396 -1.6085167 242.56
10.532577 -20.284727 -1.5982603 242.56
2.0350151 -3.9192429 -1.9661649 242.56
11.426965 -22.007231 -1.156387 242.56
2.1532967 -4.1470418 -1.9517819 242.56
12.061925 -23.230104 -0.607705 242.56
2.1187966 -4.0805979 -1.7954158 242.56
33.426926 -64.377029 0 242.56
2.2223032 -4.2799416 -1.7552474 242.56
33.423447 -64.370338 1.6839432 242.56
2.3600988 -4.5453224 -1.7305524 242.56
33.432983 -64.388702 3.3833542 242.56
2.4652028 -4.7477427 -1.6692901 242.56
2.7434347 -5.2835908 -1.5585095 242.56
3.9943848 -7.6928 -2.0538218 242.56
4.4137387 -8.5004358 -2.0358713 242.56
4.8708744 -9.3808346 -1.991496 242.56
5.5910354 -10.841717 -2.0041337 242.72
6.5104375 -12.624553 -1.9962989 242.72
8.0236788 -15.558916 -1.633226 242.72
10.612143 -20.57827 -1.6190478 242.72
2.0282497 -3.9330299 -1.9702322 242.72
10.534023 -20.426788 -1.0717915 242.72
2.1433995 -4.1563191 -1.9533235 242.72
11.898033 -23.071774 -0.60269147 242.72
2.0621371 -3.9987416 -1.7568594 242.72
33.207603 -64.393692 0 242.72
2.2172339 -4.2994933 -1.7607197 242.72
33.197739 -64.374565 1.681622 242.72
2.3786604 -4.6125202 -1.7536008 242.72
33.206348 -64.391258 3.3786027 242.72
2.3022988 -4.4644451 -1.5674169 242.72
2.5368829 -4.919333 -1.5871199 242.72
2.7960658 -5.4219213 -1.5970037 242.72
3.973779 -7.7056541 -2.0542829 242.72
4.3962603 -8.5248985 -2.0387821 242.72
4.8356509 -9.3769321 -1.9877928 242.72
5.5561447 -10.852987 -2.0031612 242.89
6.4684386 -12.634999 -1.9949073 242.89
6.8046274 -13.291687 -1.7462096 242.89
7.830471 -15.295498 -1.603129 242.89
10.595589 -20.696688 -1.6258839 242.89
2.0248973 -3.9552939 -1.9783671 242.89
11.357379 -22.184715 -1.1622565 242.89
2.1251709 -4.1511617 -1.9479276 242.89
12.293303 -24.012886 -0.62632006 242.89
2.1241241 -4.1491165 -1.82015 242.89
32.96809 -64.397583 0 242.89
2.2293038 -4.3545675 -1.7805569 242.89
32.961033 -64.383797 1.679301 242.89
2.2812107 -4.4559588 -1.6914982 242.89
32.963257 -64.388138 3.3732922 242.89
2.2812121 -4.4559612 -1.5620551 242.89
2.5722132 -5.0243831 -1.6185426 242.89
2.9354599 -5.7339234 -1.5263023 242.89
4.3861027 -8.5675087 -2.045851 242.89
4.8293033 -9.4332256 -1.9966801 242.89
5.5166588 -10.859832 -2.0012157 243.07001
6.4152579 -12.628772 -1.9907321 243.07001
6.7133551 -13.215591 -1.733433 243.07001
10.567563 -20.802801 -1.631604 243.07001
2.0257013 -3.9876993 -1.9913826 243.07001
11.341012 -22.325377 -1.1677533 243.07001
2.1121192 -4.1578174 -1.9479276 243.07001
12.307454 -24.227869 -0.63091582 243.07001
2.3684244 -4.6623678 -2.0420308 243.07001
32.726669 -64.424164 0 243.07001
2.2726414 -4.4738135 -1.8263875 243.07001
32.711514 -64.394325 1.676887 243.07001
2.2328751 -4.3955317 -1.6658888 243.07001
32.722809 -64.416565 3.3693793 243.07001
2.4496503 -4.8222651 -1.6877583 243.07001
2.556416 -5.0324388 -1.6185426 243.07001
2.7261679 -5.3666048 -1.4262396 243.07001
4.351191 -8.5655479 -2.0421085 243.07001
4.8343596 -9.5166903 -2.011122 243.07001
6.3572493 -12.607077 -1.9843301 243.24001
6.738512 -13.363159 -1.7501587 243.24001
7.5728097 -15.017657 -1.5691305 243.24001
10.51298 -20.848316 -1.63272 243.24001
2.0229099 -4.0116377 -2.0003309 243.24001
11.288215 -22.385685 -1.1691508 243.24001
2.0989425 -4.1624184 -1.9471568 243.24001
12.100475 -23.996481 -0.62395257 243.24001
2.3554194 -4.6710377 -2.0427582 243.24001
32.483147 -64.417404 0 243.24001
2.3668249 -4.6936564 -1.9132607 243.24001
32.476196 -64.403618 1.6746124 243.24001
2.1609581 -4.2854013 -1.6217127 243.24001
32.478466 -64.408127 3.3638823 243.24001
2.3665612 -4.6931334 -1.6400983 243.24001
2.3986452 -4.7567592 -1.5275822 243.24001
2.5350535 -5.0272708 -1.4739234 243.24001
3.8949194 -7.7240243 -2.0496719 243.24001
4.3204727 -8.5679398 -2.0396137 243.24001
4.819376 -9.5573158 -2.0166767 243.24001
4.7914581 -9.5766687 -1.7593318 243.42
6.3220425 -12.635842 -1.9857218 243.42
6.6378341 -13.267013 -1.7348268 243.42
7.5674715 -15.125076 -1.5778624 243.42
10.537596 -21.061451 -1.6468109 243.42
2.0168374 -4.031045 -2.0068386 243.42
11.300073 -22.585413 -1.1777222 243.42
2.0941131 -4.1854959 -1.9548652 243.42
12.108231 -24.200674 -0.62826979 243.42
2.3307302 -4.6584215 -2.0340285 243.42
32.230499 -64.418976 0 243.42
2.405046 -4.8069563 -1.9563552 243.42
32.228973 -64.415924 1.6722913 243.42
2.1585059 -4.3141975 -1.6300358 243.42
32.240204 -64.43837 3.3601558 243.42
2.3612027 -4.7193265 -1.6466516 243.42
2.5867033 -5.1700339 -1.657683 243.42
3.8758593 -7.746665 -2.0524385 243.42
4.3075399 -8.6094627 -2.0462668 243.42
4.7567887 -9.5073748 -2.0029755 243.42
6.3109512 -12.70776 -1.9940722 243.59
6.5701666 -13.229717 -1.7273932 243.59
7.6058202 -15.315114 -1.5953261 243.59
10.544277 -21.232004 -1.6576928 243.59
2.0186834 -4.0648298 -2.0206676 243.59
11.288994 -22.731567 -1.1835917 243.59
2.0825062 -4.1933436 -1.955636 243.59
12.098627 -24.361849 -0.63151932 243.59
2.3218699 -4.6753278 -2.0383935 243.59
32.008087 -64.451622 0 243.59
2.145844 -4.3208814 -1.7559314 243.59
32.000351 -64.43605 1.6703416 243.59
2.1482244 -4.3256741 -1.6319565 243.59
32.003551 -64.44249 3.3554041 243.59
2.3327534 -4.6972427 -1.6365238 243.59
2.6064122 -5.2482829 -1.6802853 243.59
2.6789949 -5.3944364 -1.5767435 243.59
3.8632448 -7.7790465 -2.057972 243.59
4.3002491 -8.6590004 -2.0549991 243.59
4.7696462 -9.6041803 -2.0203795 243.59
6.2732191 -12.726429 -1.9940722 243.75999
6.5809464 -13.350713 -1.7406343 243.75999
7.5612264 -15.339399 -1.5955119 243.75999
10.513872 -21.329409 -1.6628548 243.75999
2.0171156 -4.0921063 -2.0312428 243.75999
11.263014 -22.849184 -1.1879705 243.75999
2.0708711 -4.2011595 -1.956407 243.75999
12.09436 -24.535732 -0.63509375 243.75999
2.3170483 -4.7005773 -2.0463958 243.75999
31.783997 -64.479935 0 243.75999
2.138 -4.3373432 -1.7600356 243.75999
31.759521 -64.430283 1.667742 243.75999
2.1621878 -4.3864126 -1.6524439 243.75999
31.76539 -64.442192 3.3504665 243.75999
2.4901631 -5.051774 -1.757461 243.75999
2.6375792 -5.3508353 -1.7106054 243.75999
3.5081501 -7.1169558 -2.0771685 243.75999
3.8504722 -7.8114219 -2.0635054 243.75999
4.2849178 -8.6927776 -2.059989 243.75999
4.7454739 -9.6271048 -2.0222311 243.75999
4.719851 -9.6429329 -1.7638712 243.92
6.2498455 -12.768802 -1.997969 243.92
6.5811906 -13.445759 -1.7506233 243.92
7.6277928 -15.584029 -1.6187348 243.92
10.486722 -21.424988 -1.6680168 243.92
2.0105 -4.1075692 -2.0361238 243.92
11.204432 -22.891315 -1.1885295 243.92
2.0575085 -4.2036109 -1.9548652 243.92
11.987999 -24.492188 -0.63309765 243.92
2.2793422 -4.6568298 -2.0245714 243.92
31.554573 -64.467842 0 243.92
2.1192696 -4.3297925 -1.7545633 243.92
31.559256 -64.477417 1.6666743 243.92
2.2207336 -4.5370893 -1.7068638 243.92
31.551058 -64.460663 3.346833 243.92
2.497869 -5.1032929 -1.7729505 243.92
2.6209362 -5.3547268 -1.7095029 243.92
3.0000246 -6.1292262 -1.7864357 243.92
3.8235102 -7.811656 -2.0607386 243.92
4.2632065 -8.709981 -2.0612366 243.92
4.7237558 -9.6509104 -2.0244529 243.92
4.7110848 -9.702096 -1.7719772 244.10001
6.2010493 -12.770556 -1.9951856 244.10001
6.9751368 -14.364728 -1.4898008 244.10001
10.465549 -21.552948 -1.675411 244.10001
2.011153 -4.1418061 -2.0499527 244.10001
11.143806 -22.949764 -1.1897408 244.10001
2.0467107 -4.2150345 -1.9571778 244.10001
11.317105 -23.306658 -0.60153097 244.10001
2.2524946 -4.6388297 -2.0136592 244.10001
31.30471 -64.469505 0 244.10001
31.30501 -64.470123 1.6639354 244.10001
2.2329533 -4.5985861 -1.7273513 244.10001
31.307377 -64.474998 3.342454 244.10001
2.4985032 -5.1454639 -1.7848655 244.10001
2.6049407 -5.3646636 -1.7100542 244.10001
3.03474 -6.2498002 -1.6461931 244.10001
4.2341132 -8.7198114 -2.0604048 244.10001
4.692555 -9.6639347 -2.0240827 244.10001
4.687418 -9.7266989 -1.7739227 244.27
6.1510935 -12.763921 -1.9912888 244.27
6.690382 -13.88298 -1.8021942 244.27
6.9160595 -14.351275 -1.4862709 244.27
10.425807 -21.63423 -1.6793174 244.27
2.0091667 -4.1691523 -2.0605278 244.27
11.225711 -23.294083 -1.2058586 244.27
2.0365989 -4.2260761 -1.9594903 244.27
2.2168839 -4.6001787 -1.9940172 244.27
11.904736 -24.703104 0 244.27
31.078865 -64.490677 1.6620786 244.27
31.071705 -64.475822 3.3377025 244.27
2.4649906 -5.1150165 -1.771759 244.27
2.606539 -5.4087391 -1.7216309 244.27
3.0162847 -6.2589879 -1.8188519 244.27
3.7875485 -7.8594108 -2.0671942 244.27
4.2150168 -8.7464352 -2.0637314 244.27
4.6698337 -9.6902094 -2.0266747 244.27
6.1157589 -12.787476 -1.9921237 244.44
6.6620173 -13.92965 -1.8056787 244.44
7.5066648 -15.695729 -1.6231936 244.44
10.377066 -21.697466 -1.6818286 244.44
2.0054591 -4.1932263 -2.0694761 244.44
11.180682 -23.377752 -1.2084672 244.44
2.0264397 -4.2370949 -1.9618028 244.44
12.634806 -26.418188 -0.67989057 244.44
2.1718767 -4.5411897 -1.9656457 244.44
11.853824 -24.785229 0 244.44
11.840278 -24.756907 0.63713628 244.44
2.3364263 -4.8852472 -1.8297887 244.44
30.853544 -64.511856 3.3348143 244.44
2.4563932 -5.1360869 -1.776525 244.44
2.5440285 -5.319324 -1.6907595 244.44
2.8263083 -5.9095445 -1.552125 244.44
4.1426239 -8.6618366 -2.0408611 244.44
4.6436057 -9.709342 -2.0277858 244.44
6.0738578 -12.803047 -1.991567 244.62
6.8021336 -14.338175 -1.8558558 244.62
6.8752084 -14.492209 -1.496489 244.62
10.346477 -21.809273 -1.6879672 244.62
2.0040228 -4.224267 -2.0816782 244.62
11.138866 -23.479548 -1.2119144 244.62
2.0241928 -4.2667832 -1.9725946 244.62
12.596313 -26.551689 -0.6823045 244.62
2.1416292 -4.5143266 -1.9510961 244.62
12.970035 -27.339455 0 244.62
2.3811812 -5.0192771 -2.0220232 244.62
30.597778 -64.496864 1.65739 244.62
2.2934549 -4.8343592 -1.8080207 244.62
30.608763 -64.52002 3.3302491 244.62
2.4296074 -5.1213541 -1.7687802 244.62
2.5899312 -5.4592996 -1.7326564 244.62
2.9232612 -6.1619244 -1.7854227 244.62
2.8093972 -5.9219108 -1.5530472 244.62
4.1522856 -8.7525768 -2.0591574 244.62
4.6113949 -9.7203302 -2.0270452 244.62
5.1957793 -11.036592 -2.0041337 244.78999
6.0476542 -12.846099 -1.995464 244.78999
6.7282553 -14.291796 -1.8472607 244.78999
6.8338757 -14.516148 -1.4968606 244.78999
10.321662 -21.924715 -1.6945243 244.78999
2.0000408 -4.2483783 -2.0906262 244.78999
11.149142 -23.682404 -1.2206721 244.78999
2.0248871 -4.3011551 -1.9856991 244.78999
11.160807 -23.70718 -0.60835493 244.78999
2.1298125 -4.5240321 -1.952551 244.78999
12.557481 -26.67392 0 244.78999
2.3598742 -5.0127172 -2.0165508 244.78999
30.374767 -64.520432 1.6556724 244.78999
2.43244 -5.1668572 -1.9296652 244.78999
30.373796 -64.518372 3.3254976 244.78999
2.2663982 -4.8141603 -1.6603538 244.78999
2.585186 -5.491312 -1.7403742 244.78999
2.8141952 -5.9777608 -1.5654974 244.78999
4.1412969 -8.7967186 -2.0666423 244.78999
4.5867195 -9.7428608 -2.0288966 244.78999
5.1563277 -11.037656 -2.0015399 244.96001
5.9885554 -12.819126 -1.9885052 244.96001
6.7589684 -14.468275 -1.867471 244.96001
8.9459209 -19.149675 -1.97191 244.96001
10.046299 -21.505148 -1.6597855 244.96001
1.9912934 -4.2625709 -2.0946937 244.96001
11.184524 -23.941635 -1.2323179 244.96001
2.0246139 -4.3338966 -1.9980326 244.96001
11.868142 -25.404993 -0.65101635 244.96001
2.1171687 -4.5320196 -1.9532785 244.96001
12.607798 -26.9883 0 244.96001
2.3640816 -5.0605626 -2.0329678 244.96001
30.147655 -64.534187 1.6537226 244.96001
2.4732358 -5.2942185 -1.9744816 244.96001
30.144182 -64.526756 3.3213053 244.96001
2.4761186 -5.3003893 -1.677529 244.96001
2.8022122 -5.9984269 -1.5687252 244.96001
4.1151781 -8.8089666 -2.0666423 244.96001
4.5619512 -9.7653313 -2.0307481 244.96001
5.1476254 -11.104832 -2.0109429 245.13
5.9404988 -12.815275 -1.9851651 245.13
6.6667204 -14.381933 -1.8537651 245.13
6.6789412 -14.408298 -1.4816264 245.13
9.9522419 -21.469698 -1.6547631 245.13
1.981711 -4.2750907 -2.0979476 245.13
11.173933 -24.105221 -1.239026 245.13
2.0195074 -4.3566279 -2.0057411 245.13
11.918006 -25.710386 -0.65793318 245.13
2.1021454 -4.5349007 -1.9518236 245.13
12.707666 -27.413898 0 245.13
2.3553796 -5.0811958 -2.03844 245.13
29.917364 -64.539909 1.6515872 245.13
2.4551263 -5.2963762 -1.9725609 245.13
29.909744 -64.523468 3.3165536 245.13
2.4746578 -5.3385115 -1.8361 245.13
2.4603813 -5.307713 -1.677529 245.13
2.5599048 -5.5224128 -1.5934582 245.13
2.5503225 -5.5017409 -1.4368453 245.13
4.0956054 -8.8353367 -2.0699687 245.13
4.5453553 -9.8055706 -2.0363028 245.13
5.1157699 -11.11737 -2.0106187 245.28999
5.9063449 -12.835413 -1.9857218 245.28999
6.6439705 -14.43839 -1.8586435 245.28999
6.625361 -14.397947 -1.4786538 245.28999
10.304252 -22.392754 -1.7236825 245.28999
1.9743476 -4.2905669 -2.1028285 245.28999
11.241869 -24.430344 -1.254119 245.28999
2.0165911 -4.3823686 -2.0149913 245.28999
12.050104 -26.186764 -0.66926003 245.28999
2.0925887 -4.547523 -1.9547335 245.28999
12.679553 -27.554657 0 245.28999
2.3403955 -5.0860462 -2.037756 245.28999
29.704422 -64.552361 1.6497768 245.28999
2.434782 -5.291163 -1.9680792 245.28999
29.698544 -64.539589 3.3131065 245.28999
2.4509611 -5.3263226 -1.8295467 245.28999
2.4519789 -5.3285346 -1.6819391 245.28999
2.5396206 -5.5189939 -1.5904191 245.28999
4.0504718 -8.8023109 -2.0595732 245.28999
4.5171337 -9.8164406 -2.0359325 245.28999
5.0857344 -11.144159 -2.0125642 245.47
5.8816147 -12.888139 -1.9910104 245.47
6.0427175 -13.241157 -1.7020724 245.47
7.8880129 -17.284676 -1.7725639 245.47
9.257266 -20.285065 -1.5591967 245.47
1.9601002 -4.2950859 -2.102015 245.47
11.193264 -24.527336 -1.2572867 245.47
2.0166049 -4.4189029 -2.0288663 245.47
12.053278 -26.411848 -0.67404145 245.47
2.0782919 -4.5540748 -1.9547335 245.47
12.663505 -27.749012 0 245.47
2.3212845 -5.0865345 -2.0350199 245.47
29.463293 -64.561691 1.6476414 245.47
2.4197206 -5.3022332 -1.9693598 245.47
29.46661 -64.568962 3.3098457 245.47
2.4809821 -5.4364729 -1.8646959 245.47
2.48631 -5.4481478 -1.7172208 245.47
4.0219865 -8.8132124 -2.0591574 245.47
4.4879045 -9.8341589 -2.0366731 245.47
5.0523267 -11.163677 -2.0132124 245.64999
5.8329306 -12.888509 -1.9882269 245.64999
7.9801431 -17.633015 -1.3534151 245.64999
1.9450904 -4.2978935 -2.1003881 245.64999
11.140042 -24.615162 -1.2599885 245.64999
2.0141263 -4.4504361 -2.0404291 245.64999
11.960351 -26.427725 -0.67348439 245.64999
2.0639746 -4.5605812 -1.9547335 245.64999
12.466592 -27.54632 0 245.64999
2.3060682 -5.0955138 -2.0357039 245.64999
29.219101 -64.562851 1.6453204 245.64999
2.3960202 -5.2942729 -1.9635977 245.64999
29.219133 -64.562927 3.3048146 245.64999
2.4922292 -5.5068579 -1.8861428 245.64999
2.6756096 -5.9120569 -1.6988107 245.64999
4.0096045 -8.8596678 -2.0670581 245.64999
4.4561768 -9.8464184 -2.0363028 245.64999
4.7257419 -10.525078 -1.8955131 245.82001
4.7798071 -10.64549 -1.6400158 245.82001
7.8450866 -17.472418 -1.7868693 245.82001
9.6831646 -21.566151 -1.6530889 245.82001
1.9300846 -4.2986455 -2.0979476 245.82001
11.091508 -24.702784 -1.2627835 245.82001
2.0099838 -4.4765954 -2.0496793 245.82001
11.876972 -26.452152 -0.67320585 245.82001
2.0527232 -4.571784 -1.9569159 245.82001
12.447065 -27.721853 0 245.82001
2.2824714 -5.0834746 -2.0281794 245.82001
28.997927 -64.583595 1.6436492 245.82001
2.3826296 -5.3065443 -1.9655184 245.82001
28.99962 -64.587372 3.3016469 245.82001
2.4203556 -5.3905673 -1.8438447 245.82001
2.589216 -5.7666497 -1.8125912 245.82001
2.5550311 -5.6905136 -1.6329653 245.82001
3.6182108 -8.0584068 -2.0930169 245.82001
3.978492 -8.860817 -2.064563 245.82001
4.4462638 -9.9026289 -2.0451901 245.82001
4.6607656 -10.463336 -1.8818949 245.99001
4.7014594 -10.554693 -1.6238717 245.99001
6.5050702 -14.603767 -1.8695617 245.99001
7.7291989 -17.351913 -1.7721924 245.99001
9.6605368 -21.687733 -1.6602041 245.99001
1.9158349 -4.3010154 -2.0963206 245.99001
11.082384 -24.879755 -1.2701437 245.99001
2.0072055 -4.5061402 -2.0604711 245.99001
11.909894 -26.737499 -0.67956567 245.99001
2.0406656 -4.5812578 -1.9583708 245.99001
28.776505 -64.602737 0 245.99001
2.2658491 -5.0867906 -2.0268114 245.99001
28.76387 -64.574379 1.6412352 245.99001
2.3730419 -5.3274369 -1.9706402 245.99001
28.772091 -64.592834 3.2975476 245.99001
2.4074583 -5.4047008 -1.8462276 245.99001
2.4977794 -5.60747 -1.7602202 245.99001
2.7129371 -6.0904956 -1.579792 245.99001
2.7597628 -6.1956182 -1.4416597 245.99001
4.4264588 -9.9373217 -2.0496337 245.99001
4.6049719 -10.421159 -1.8718435 246.16
4.6156883 -10.445411 -1.6049442 246.16
6.395071 -14.472195 -1.8502806 246.16
10.203363 -23.09045 -1.7652574 246.16
1.9067576 -4.3150368 -2.1003881 246.16
11.05212 -25.011206 -1.2751747 246.16
2.0072529 -4.5424604 -2.0743463 246.16
11.805457 -26.716024 -0.67812657 246.16
2.0278168 -4.5889964 -1.9590983 246.16
28.547514 -64.603683 0 246.16
2.2461886 -5.0831771 -2.0227072 246.16
28.545479 -64.599083 1.6397034 246.16
2.346503 -5.3101912 -1.961677 246.16
28.5464 -64.601166 3.2936347 246.16
2.341253 -5.2983098 -1.8075039 246.16
2.4080877 -5.4495583 -1.7084004 246.16
2.6525967 -6.0028882 -1.7180579 246.16
2.6484456 -5.993494 -1.5525861 246.16
2.716856 -6.1483083 -1.4287691 246.16
4.3898053 -9.9342318 -2.0463009 246.16
4.5761704 -10.444613 -1.8734647 246.34
4.5876193 -10.470744 -1.6066142 246.34
6.3168893 -14.417615 -1.8407563 246.34
7.5503359 -17.232824 -1.755286 246.34
10.228454 -23.345337 -1.7822779 246.34
1.8880595 -4.3092909 -2.0946937 246.34
10.935007 -24.95797 -1.2707027 246.34
1.9996381 -4.5639572 -2.081284 246.34
12.027986 -27.452572 -0.69585961 246.34
2.0231092 -4.6175275 -1.9685556 246.34
28.297863 -64.586807 0 246.34
2.1879723 -4.9938097 -1.9844009 246.34
28.309496 -64.613358 1.6378001 246.34
2.327528 -5.3123302 -1.9597563 246.34
28.31204 -64.619164 3.2900012 246.34
2.3812938 -5.4350448 -1.8515894 246.34
2.5699492 -5.8656306 -1.8362961 246.34
2.6360543 -6.0165081 -1.7195773 246.34
2.6702149 -6.0944762 -1.5765642 246.34
3.8979111 -8.8965597 -2.064563 246.34
4.3475323 -9.9227705 -2.0411167 246.34
4.5564289 -10.479069 -1.8773556 246.5
4.5749459 -10.521656 -1.6124595 246.5
6.7946367 -15.626595 -1.9926814 246.5
7.6752863 -17.651951 -1.7957869 246.5
7.768599 -17.866554 -1.3623439 246.5
1.8825753 -4.3296266 -2.102015 246.5
10.850133 -24.953598 -1.2689326 246.5
1.9913006 -4.5796781 -2.0859089 246.5
11.91779 -27.409042 -0.69390988 246.5
2.0213499 -4.6487865 -1.9794677 246.5
28.101442 -64.628891 0 246.5
2.1402953 -4.9223423 -1.953619 246.5
28.096264 -64.616982 1.6358968 246.5
2.322506 -5.3413982 -1.9680792 246.5
28.089258 -64.600868 3.2850633 246.5
2.4407139 -5.6132579 -1.9099729 246.5
2.6440187 -6.0808263 -1.9013464 246.5
2.6709332 -6.1427259 -1.753513 246.5
2.6531856 -6.1019092 -1.5765642 246.5
3.8566704 -8.8697348 -2.0558307 246.5
4.3174543 -9.9294653 -2.0400057 246.5
4.5003066 -10.434552 -1.8669798 246.67
4.4895878 -10.409699 -1.5932536 246.67
6.7340813 -15.613853 -1.9885 246.67
7.6270599 -17.684341 -1.3467184 246.67
1.8682736 -4.3318381 -2.1003881 246.67
10.825101 -25.099419 -1.2747089 246.67
1.9813579 -4.594039 -2.0897632 246.67
11.824536 -27.416742 -0.69321358 246.67
2.0193527 -4.6821346 -1.9911073 246.67
27.869165 -64.618324 0 246.67
2.1234481 -4.9234939 -1.9515669 246.67
27.870369 -64.621109 1.6339006 246.67
2.3486686 -5.4456968 -2.0039322 246.67
27.87768 -64.638069 3.2827342 246.67
2.39078 -5.5433378 -1.8837599 246.67
2.6153057 -6.06393 -1.8936286 246.67
2.6235085 -6.0829496 -1.5696474 246.67
2.6085646 -6.0482998 -1.4000773 246.67
4.3050981 -9.9819355 -2.0481524 246.67
4.4620719 -10.435937 -1.8647102 246.85001
4.391458 -10.270783 -1.5698726 246.85001
6.7341962 -15.750002 -2.003135 246.85001
9.6092434 -22.47419 -1.7091731 246.85001
1.8560921 -4.3410459 -2.102015 246.85001
10.695928 -25.015738 -1.2687463 246.85001
1.9712688 -4.6104221 -2.0943882 246.85001
11.592137 -27.111801 -0.68457919 246.85001
2.0170844 -4.717576 -2.0034745 246.85001
27.640863 -64.646713 0 246.85001
2.1072311 -4.9284124 -1.9508829 246.85001
27.639706 -64.644005 1.6322759 246.85001
2.3226099 -5.4321423 -1.9962496 246.85001
27.638346 -64.640823 3.2784483 246.85001
2.4026263 -5.6192851 -1.9069941 246.85001
2.3528683 -5.5029106 -1.7161182 246.85001
2.5929091 -6.0643201 -1.5627307 246.85001
2.5880122 -6.0528674 -1.3992456 246.85001
2.586175 -6.0485702 -1.2394081 246.85001
4.3840885 -10.338298 -1.8449315 247.02
6.7145791 -15.833922 -2.0112655 247.02
7.3864903 -17.418383 -1.7651325 247.02
10.071404 -23.749786 -1.8039024 247.02
1.8417772 -4.3431697 -2.1003881 247.02
10.81665 -25.507183 -1.292038 247.02
1.9611832 -4.6247458 -2.0982425 247.02
11.547552 -27.230753 -0.68671459 247.02
2.0139883 -4.7492676 -2.0143867 247.02
27.415356 -64.649269 0 247.02
2.098469 -4.9484849 -1.9563552 247.02
27.417337 -64.653938 1.6304655 247.02
2.3249755 -5.4826193 -2.0122554 247.02
27.417572 -64.654495 3.2750013 247.02
2.3538918 -5.550808 -1.8813769 247.02
2.2674778 -5.3470316 -1.6654009 247.02
2.4118812 -5.6875553 -1.6172638 247.02
2.5262783 -5.9573197 -1.5332191 247.02
2.6739125 -6.3054619 -1.4557977 247.02
4.2785711 -10.089473 -2.0648162 247.02
4.3546476 -10.359297 -1.8462285 247.2
4.3954072 -10.456261 -1.5940887 247.2
6.4908309 -15.441076 -1.9587654 247.2
7.398097 -17.599377 -1.7811099 247.2
10.06014 -23.932127 -1.8153424 247.2
1.8309557 -4.3556719 -2.103642 247.2
10.747303 -25.566824 -1.2933422 247.2
1.9466445 -4.6308842 -2.0982425 247.2
11.487516 -27.327723 -0.68824649 247.2
2.0127749 -4.7882023 -2.0282087 247.2
27.177242 -64.652107 0 247.2
2.0792711 -4.9463902 -1.952935 247.2
27.191616 -64.686302 1.6291193 247.2
2.3327043 -5.5492845 -2.0340233 247.2
27.185675 -64.672165 3.271554 247.2
2.2106676 -5.2589703 -1.7800995 247.2
2.4339404 -5.7901154 -1.8010144 247.2
2.5177126 -5.9894018 -1.7008368 247.2
2.5083046 -5.967021 -1.5336802 247.2
2.6662197 -6.3426862 -1.4624509 247.2
4.2430453 -10.093805 -2.0629647 247.2
4.3656573 -10.47236 -1.8640617 247.37
4.4405704 -10.652061 -1.6219233 247.37
6.4365802 -15.440099 -1.95621 247.37
7.5634556 -18.143253 -1.8338726 247.37
10.034381 -24.07052 -1.8235737 247.37
1.8180242 -4.3610849 -2.103642 247.37
10.653717 -25.556187 -1.2911994 247.37
1.9314756 -4.6332331 -2.0967009 247.37
11.388688 -27.319239 -0.68717879 247.37
2.0107455 -4.8233862 -2.040576 247.37
11.797314 -28.299452 0 247.37
2.0653088 -4.9542727 -1.953619 247.37
26.96187 -64.676262 1.6268445 247.37
2.3155 -5.5544324 -2.0333831 247.37
26.962921 -64.67878 3.2678273 247.37
2.2244391 -5.3359952 -1.8039294 247.37
2.3265011 -5.580822 -1.7337589 247.37
2.5758667 -6.1790013 -1.7525001 247.37
2.7189803 -6.5223031 -1.6743213 247.37
2.5525436 -6.1230536 -1.4100571 247.37
4.2077837 -10.093652 -2.0603726 247.37
4.2986817 -10.393325 -1.8478496 247.53
5.4849334 -13.261436 -2.0168965 247.53
6.6584077 -16.098654 -2.0372832 247.53
7.4153404 -17.928762 -1.8100922 247.53
10.007539 -24.196161 -1.8309679 247.53
1.8051404 -4.3644567 -2.1028285 247.53
10.799163 -26.110146 -1.3176588 247.53
1.9185297 -4.6386085 -2.0967009 247.53
11.361262 -27.469185 -0.69014978 247.53
2.0093729 -4.8582487 -2.052943 247.53
26.750153 -64.676346 0 247.53
2.0514657 -4.9600205 -1.953619 247.53
26.75288 -64.682938 1.625127 247.53
2.3007042 -5.5626273 -2.0340233 247.53
26.753946 -64.685516 3.2643802 247.53
2.2467444 -5.4321637 -1.8343127 247.53
2.5195873 -6.0918412 -1.890321 247.53
2.5652568 -6.2022614 -1.7570585 247.53
2.5601771 -6.1899791 -1.58717 247.53
2.6647861 -6.4429026 -1.4819945 247.53
4.1803317 -10.107179 -2.0607429 247.53
4.3034368 -10.498081 -1.8640617 247.71001
5.4237132 -13.230956 -2.0096595 247.71001
6.6077995 -16.119493 -2.0372832 247.71001
7.4156275 -18.09016 -1.824026 247.71001
10.019257 -24.441622 -1.8471514 247.71001
1.7934991 -4.3751779 -2.105269 247.71001
10.742088 -26.204945 -1.3207333 247.71001
1.9067476 -4.651443 -2.0997841 247.71001
11.272635 -27.499193 -0.69001049 247.71001
2.0061131 -4.8938417 -2.06531 247.71001
26.518007 -64.689743 0 247.71001
2.0372992 -4.9699187 -1.9549872 247.71001
26.514656 -64.681564 1.6229916 247.71001
2.2810614 -5.5645685 -2.0321026 247.71001
26.530897 -64.721184 3.2619579 247.71001
2.3303249 -5.6847448 -1.9171219 247.71001
2.444288 -5.9627542 -1.8478729 247.71001
2.5450253 -6.2084994 -1.7565521 247.71001
13.460472 -32.836346 4.1500645 247.71001
2.5591717 -6.2430091 -1.5986979 247.71001
3.6811233 -8.97997 -2.0628998 247.71001
4.1612315 -10.151177 -2.0670381 247.71001
4.2581496 -10.476067 -1.8579011 247.88
4.3470716 -10.694835 -1.62248 247.88
6.4058557 -15.759935 -1.9894291 247.88
7.17521 -17.652733 -1.7777659 247.88
9.619895 -23.66724 -1.7864633 247.88
1.7832618 -4.3872504 -2.1085227 247.88
10.679335 -26.273718 -1.3225967 247.88
1.8922431 -4.6553707 -2.0990133 247.88
12.58535 -30.962969 -0.77598327 247.88
2.0028081 -4.9273868 -2.0769498 247.88
26.301102 -64.706993 0 247.88
2.0289133 -4.9916115 -1.9611435 247.88
26.297028 -64.696968 1.6214132 247.88
2.2188792 -5.4589729 -1.9911276 247.88
26.297373 -64.697823 3.2568338 247.88
2.3263881 -5.7234707 -1.9278454 247.88
2.29266 -5.6404915 -1.745887 247.88
2.5280504 -6.2196083 -1.757565 247.88
2.5853384 -6.3605504 -1.6268262 247.88
2.9900153 -7.3561521 -1.6878271 247.88
4.1310945 -10.163479 -2.0670381 247.88
4.2414398 -10.529665 -1.8650345 248.06
4.3127112 -10.706602 -1.6222017 248.06
6.5218263 -16.190882 -2.0412323 248.06
9.9882927 -24.796621 -1.869334 248.06
1.7701527 -4.3945255 -2.1093361 248.06
10.614656 -26.351612 -1.3248327 248.06
1.8776085 -4.6612921 -2.0990133 248.06
12.450662 -30.909622 -0.77366221 248.06
1.9977597 -4.9595757 -2.087862 248.06
13.150473 -32.646954 0 248.06
2.0202436 -5.0153933 -1.967984 248.06
13.167849 -32.690086 0.81822693 248.06
2.2257886 -5.5256729 -2.0128956 248.06
13.170534 -32.696754 1.643836 248.06
2.2877085 -5.6793938 -1.9105686 248.06
2.3043797 -5.7207808 -1.7684892 248.06
2.4925945 -6.1880369 -1.7464221 248.06
3.0350707 -7.534771 -1.5304673 248.06
4.2237353 -10.570791 -1.8702222 248.22
4.3268881 -10.828953 -1.6389024 248.22
6.5001736 -16.268059 -2.048666 248.22
7.3540606 -18.405092 -1.8491069 248.22
10.007842 -25.046741 -1.8860755 248.22
1.7524506 -4.3858786 -2.1028285 248.22
10.615155 -26.566673 -1.3341494 248.22
1.8652693 -4.668231 -2.0997841 248.22
12.364297 -30.944269 -0.77366221 248.22
1.9921972 -4.9858952 -2.0965917 248.22
2.0187821 -5.0524297 -1.9802966 248.22
26.187887 -65.540726 1.6386356 248.22
2.1934764 -5.4896388 -1.99753 248.22
2.3646402 -5.9180126 -1.9886118 248.22
13.082964 -32.742886 2.4656124 248.22
2.361156 -5.9092927 -1.8247193 248.22
13.076676 -32.72715 3.288003 248.22
2.2987022 -5.7529883 -1.6218222 248.22
13.07479 -32.722431 4.1207943 248.22
2.3381414 -5.8516936 -1.4931017 248.22
4.0787325 -10.207891 -2.0711114 248.22
4.1890521 -10.580338 -1.8695738 248.39999
4.3271136 -10.929041 -1.6519847 248.39999
6.457809 -16.310564 -2.0514536 248.39999
6.9545946 -17.5653 -1.7625315 248.39999
9.9650946 -25.168955 -1.8929117 248.39999
1.7420263 -4.3998561 -2.1068959 248.39999
10.560324 -26.672335 -1.3377829 248.39999
