# .PCD v0.7 - Point Cloud Data file format
VERSION 0.7
FIELDS x y z intensity
SIZE 4 4 4 4
TYPE F F F F
COUNT 1 1 1 1
WIDTH 1217
HEIGHT 1
VIEWPOINT 0 0 0 1 0 0 0
POINTS 1217
DATA ascii
12.453561 -6.298933 -0.97589308 206.83
4.1444864 -2.0962553 -2.0678492 206.83
12.939285 -6.5446091 -0.67620504 206.83
4.3969917 -2.2239709 -2.0581586 206.83
14.553869 -7.3612561 -0.37866089 206.83
4.6265955 -2.3401029 -2.0245714 206.83
42.50975 -21.501165 0 206.83
4.9104571 -2.4836783 -2.0028698 206.83
12.444923 -6.2945642 0.32379058 206.83
5.2295976 -2.6450975 -1.9802437 206.83
42.427948 -21.459789 2.217278 206.83
5.5505986 -2.8074579 -1.9409518 206.83
42.450706 -21.471302 3.3265467 206.83
6.0370665 -3.0535102 -1.9399357 206.83
42.505421 -21.498976 4.4439502 206.83
6.5469599 -3.3114111 -1.9206589 206.83
42.456013 -21.473986 5.5638509 206.83
7.0958147 -3.5890183 -1.8841302 206.83
42.523743 -21.508242 6.697288 206.83
7.8556466 -3.9733367 -1.8712052 206.83
8.5184088 -4.3085575 -1.7985674 206.83
9.4472513 -4.8156919 -1.7421471 207.00999
11.01233 -5.6134834 -1.7371587 207.00999
12.087695 -6.1616459 -1.5866185 207.00999
12.557435 -6.4010935 -1.3149782 207.00999
12.394606 -6.3180919 -0.9728238 207.00999
4.1362529 -2.1084354 -2.0670357 207.00999
12.836784 -6.5434904 -0.67191935 207.00999
4.3965602 -2.2411258 -2.0612419 207.00999
14.487919 -7.3851485 -0.37754679 207.00999
4.6324992 -2.3613949 -2.0303912 207.00999
14.582698 -7.4334617 0 207.00999
4.9110022 -2.5033603 -2.0062902 207.00999
14.534235 -7.4087582 0.37875375 207.00999
5.219574 -2.6606534 -1.9796034 207.00999
14.561527 -7.4226699 0.76219803 207.00999
5.5383492 -2.8231475 -1.9397603 207.00999
14.525845 -7.4044814 1.1400998 207.00999
6.0068898 -3.0619838 -1.9333204 207.00999
14.569321 -7.4266434 1.5256572 207.00999
6.553762 -3.3407495 -1.925724 207.00999
42.198975 -21.510729 5.5389943 207.00999
7.0966411 -3.6174796 -1.8873581 207.00999
42.21246 -21.517603 6.6588764 207.00999
7.1267867 -3.6328461 -1.7003018 207.00999
8.3857594 -4.2746015 -1.7733867 207.00999
9.6629066 -4.9617963 -1.7846227 207.17999
11.015006 -5.6560845 -1.7402204 207.17999
12.067593 -6.1965761 -1.5863862 207.17999
12.563188 -6.4510589 -1.3175792 207.17999
12.652677 -6.4970102 -0.99458778 207.17999
4.1283536 -2.1198642 -2.0662222 207.17999
12.788877 -6.5669479 -0.67042869 207.17999
4.3882494 -2.2533178 -2.0604711 207.17999
14.469501 -7.4299293 -0.37763962 207.17999
4.6205006 -2.3725762 -2.0282087 207.17999
14.548124 -7.4703016 0 207.17999
4.8985376 -2.5153451 -2.0042381 207.17999
14.533532 -7.4628091 0.37931082 207.17999
5.2116566 -2.6761284 -1.9796034 207.17999
14.532331 -7.4621921 0.76182538 207.17999
5.5435357 -2.8465445 -1.9445263 207.17999
6.0080395 -3.0850623 -1.9366281 207.17999
6.5438209 -3.3601801 -1.925724 207.17999
14.492067 -7.4415174 1.9051038 207.17999
7.0858769 -3.6385198 -1.8873581 207.17999
7.0916123 -3.6414652 -1.6944803 207.17999
14.499627 -7.4453988 2.6779068 207.17999
8.2384138 -4.2303348 -1.7448733 207.17999
14.499398 -7.4452815 3.0709326 207.17999
9.8786373 -5.1118526 -1.8274225 207.36
10.977834 -5.6806488 -1.7371587 207.36
12.042773 -6.2317181 -1.5856893 207.36
12.489801 -6.4630399 -1.3120056 207.36
12.704853 -6.5743213 -1.0003078 207.36
4.1184278 -2.1311438 -2.0645952 207.36
12.83206 -6.6401467 -0.67378271 207.36
4.386066 -2.2696373 -2.0627837 207.36
14.469172 -7.4872956 -0.37824312 207.36
4.6130242 -2.3870804 -2.0282087 207.36
4.8939495 -2.5324492 -2.0056062 207.36
5.2099547 -2.6959713 -1.9821644 207.36
5.5277829 -2.8604362 -1.9421433 207.36
14.501606 -7.5040789 1.1417739 207.36
6.0170999 -3.1136408 -1.942692 207.36
14.518377 -7.5127573 1.5250998 207.36
6.5246406 -3.3762755 -1.9231915 207.36
14.505667 -7.5061803 1.9099821 207.36
7.036386 -3.6410861 -1.8772135 207.36
14.483494 -7.4947062 2.2919025 207.36
7.0940371 -3.6709187 -1.6978068 207.36
14.479671 -7.4927282 2.6785553 207.36
8.3245802 -4.307682 -1.7659807 207.36
9.6551733 -5.028307 -1.7885135 207.50999
10.952385 -5.7038803 -1.7354885 207.50999
12.022894 -6.2613893 -1.5852247 207.50999
12.515226 -6.5177913 -1.3164645 207.50999
12.761918 -6.6462655 -1.0061674 207.50999
4.1176958 -2.1444504 -2.0670357 207.50999
12.687053 -6.6072764 -0.66707468 207.50999
4.3751984 -2.2785549 -2.0604711 207.50999
14.469028 -7.5353093 -0.37875375 207.50999
4.619978 -2.4060333 -2.0340285 207.50999
41.384163 -21.552414 0 207.50999
4.8873029 -2.545253 -2.0056062 207.50999
41.316269 -21.517054 1.0815302 207.50999
5.2011981 -2.7087264 -1.9815241 207.50999
41.303799 -21.510561 2.1717193 207.50999
5.5456753 -2.8881261 -1.9510796 207.50999
41.339981 -21.529402 3.2593014 207.50999
5.9850559 -3.1169508 -1.9349742 207.50999
41.360653 -21.540169 4.3506866 207.50999
6.5243592 -3.3978138 -1.925724 207.50999
41.327816 -21.523067 5.4490938 207.50999
7.0268292 -3.6594949 -1.8772135 207.50999
41.366112 -21.543013 6.5547748 207.50999
7.0566411 -3.6750202 -1.6911536 207.50999
8.4370403 -4.3939171 -1.7922723 207.50999
9.8656626 -5.1751962 -1.8303406 207.67999
10.912612 -5.7243915 -1.7318701 207.67999
11.993708 -6.2914977 -1.583831 207.67999
12.621038 -6.6205745 -1.3296552 207.67999
12.779245 -6.7035642 -1.0090971 207.67999
4.1016073 -2.1515658 -2.0621548 207.67999
12.709853 -6.6671638 -0.66931069 207.67999
4.3716874 -2.2932408 -2.0620127 207.67999
14.478478 -7.5949254 -0.37958932 207.67999
4.5996203 -2.412807 -2.0282087 207.67999
12.548326 -6.5824318 0 207.67999
4.8863864 -2.5632348 -2.0083423 207.67999
41.037994 -21.527159 1.0759132 207.67999
5.1847491 -2.7197459 -1.978323 207.67999
41.023952 -21.519793 2.1603529 207.67999
5.5235562 -2.8974726 -1.9463136 207.67999
41.048004 -21.532408 3.2413044 207.67999
5.9723763 -3.1329088 -1.9338717 207.67999
41.058495 -21.537912 4.3256059 207.67999
6.5365229 -3.4288411 -1.9323086 207.67999
41.056198 -21.536707 5.4216824 207.67999
7.0107703 -3.6776156 -1.8758302 207.67999
41.0933 -21.55617 6.5216517 207.67999
7.0197196 -3.6823101 -1.6849164 207.67999
8.4291878 -4.42167 -1.7933832 207.67999
9.8606586 -5.2143416 -1.8326102 207.87
10.876061 -5.7512889 -1.7290866 207.87
12.002631 -6.3470221 -1.58778 207.87
12.658867 -6.6940413 -1.3359718 207.87
4.1009107 -2.1685719 -2.0654087 207.87
12.645288 -6.6868606 -0.66707468 207.87
4.357533 -2.3042746 -2.0589294 207.87
31.497646 -16.656036 -0.82723272 207.87
4.5899472 -2.4271758 -2.0274813 207.87
12.593614 -6.6595349 0 207.87
4.882844 -2.5820603 -2.0103943 207.87
12.500076 -6.6100721 0.32829347 207.87
5.1857514 -2.7422385 -1.9821644 207.87
40.738667 -21.542711 2.1490798 207.87
5.5375462 -2.9282684 -1.9546541 207.87
40.784126 -21.566751 3.2260973 207.87
5.9874473 -3.1661775 -1.9421408 207.87
40.793205 -21.57155 4.3051696 207.87
6.5216956 -3.4486892 -1.9312955 207.87
40.770313 -21.559446 5.3933415 207.87
6.9400434 -3.6699126 -1.8601521 207.87
40.814995 -21.583073 6.4888067 207.87
6.9815292 -3.6918504 -1.678679 207.87
8.4353285 -4.4606228 -1.7978269 207.87
9.8617382 -5.2502041 -1.8355285 208.03
10.772547 -5.7351022 -1.7151693 208.03
11.991875 -6.3842492 -1.5887092 208.03
12.657702 -6.7387233 -1.3378296 208.03
4.093226 -2.1791568 -2.0645952 208.03
12.64949 -6.7343516 -0.66828585 208.03
4.3510814 -2.3164339 -2.0589294 208.03
31.445717 -16.74111 -0.82709342 208.03
4.5815067 -2.4391084 -2.0267537 208.03
12.544956 -6.6786995 0 208.03
4.8689785 -2.5921528 -2.0076582 208.03
40.492737 -21.557573 1.0650505 208.03
5.1780734 -2.7567091 -1.9821644 208.03
40.487892 -21.554995 2.1390178 208.03
5.5344028 -2.9464123 -1.9564413 208.03
40.498322 -21.560547 3.2082398 208.03
5.9599152 -3.1729472 -1.9360768 208.03
40.514843 -21.569342 4.2821326 208.03
6.5086241 -3.4650693 -1.9302826 208.03
40.518822 -21.571463 5.3680205 208.03
6.9211788 -3.6847057 -1.8578465 208.03
40.550022 -21.588072 6.4562402 208.03
7.083436 -3.7710886 -1.7057076 208.03
8.4315128 -4.4887795 -1.7996783 208.03
7.0984497 -3.8093462 -1.3235519 208.22
10.793608 -5.7923336 -1.7215712 208.22
11.98289 -6.4305558 -1.5903354 208.22
12.663361 -6.7957268 -1.3408022 208.22
4.0811472 -2.1901264 -2.0621548 208.22
19.566442 -10.50023 -1.0355495 208.22
4.3563848 -2.3378313 -2.0650961 208.22
31.356554 -16.827332 -0.82621145 208.22
4.5848842 -2.4604542 -2.031846 208.22
40.095325 -21.516947 0 208.22
4.8603559 -2.6082847 -2.0076582 208.22
12.526413 -6.7222347 0.3300575 208.22
5.1638947 -2.7711773 -1.9802437 208.22
40.204948 -21.575777 2.1278377 208.22
5.5262842 -2.9656518 -1.9570371 208.22
40.220917 -21.584347 3.1919167 208.22
5.9375024 -3.1863298 -1.9322178 208.22
40.236042 -21.592464 4.26021 208.22
6.5073266 -3.4921231 -1.9333216 208.22
40.224773 -21.586414 5.3385186 208.22
6.932929 -3.7205203 -1.8643022 208.22
40.274029 -21.612848 6.4236736 208.22
7.0122838 -3.7631056 -1.6915696 208.22
7.0882854 -3.8038917 -1.515655 208.22
9.694047 -5.2371793 -1.8102376 208.38
10.74951 -5.8073902 -1.7171177 208.38
11.973624 -6.4687142 -1.5914968 208.38
12.686382 -6.8537793 -1.345261 208.38
14.344661 -7.7496591 -1.1400998 208.38
4.0734081 -2.2006462 -2.0613413 208.38
19.580988 -10.578569 -1.0378788 208.38
4.3465919 -2.348233 -2.0635545 208.38
31.300646 -16.910078 -0.82597935 208.38
4.5697999 -2.4688203 -2.0282087 208.38
12.554954 -6.7827754 0 208.38
4.8563604 -2.6236339 -2.0090263 208.38
39.931061 -21.572634 1.0537237 208.38
5.152802 -2.7837856 -1.9789633 208.38
39.919552 -21.566416 2.1159124 208.38
5.5028629 -2.9729052 -1.9516753 208.38
39.977932 -21.597956 3.1774073 208.38
5.9235072 -3.2001567 -1.930564 208.38
39.979362 -21.598728 4.2394023 208.38
6.4583974 -3.4891295 -1.921672 208.38
39.963348 -21.590076 5.3118038 208.38
6.9088144 -3.732466 -1.8606132 208.38
40.006161 -21.613207 6.3905506 208.38
7.0051904 -3.7845328 -1.6924012 208.38
9.5709848 -5.2074404 -1.7901348 208.55
10.723534 -5.8345261 -1.715726 208.55
11.949144 -6.5013638 -1.5907999 208.55
12.665991 -6.8913903 -1.345261 208.55
14.230473 -7.7426033 -1.1328452 208.55
4.0620461 -2.210103 -2.0589008 208.55
4.3396053 -2.3611193 -2.0635545 208.55
31.239796 -16.997141 -0.82570082 208.55
4.5624547 -2.4823685 -2.0282087 208.55
39.744102 -21.624216 0 208.55
4.8452525 -2.636235 -2.0076582 208.55
39.689487 -21.594501 1.0490351 208.55
5.1428552 -2.7981563 -1.978323 208.55
39.660595 -21.578781 2.1055708 208.55
5.4940181 -2.9892192 -1.9516753 208.55
39.710381 -21.605867 3.1612239 208.55
5.9308734 -3.2269061 -1.9360768 208.55
39.724438 -21.613518 4.2191515 208.55
6.4803076 -3.5258458 -1.9312955 208.55
39.705429 -21.603174 5.2860184 208.55
6.8583918 -3.7315559 -1.8500075 208.55
39.748749 -21.626745 6.3596539 208.55
6.9148836 -3.7622924 -1.6732733 208.55
6.9764853 -3.795809 -1.4963993 208.55
9.5165939 -5.2123423 -1.7826772 208.71001
10.721095 -5.8720603 -1.7179527 208.71001
11.930943 -6.5347066 -1.5907999 208.71001
12.653684 -6.9305601 -1.3460041 208.71001
4.054256 -2.2205601 -2.0580873 208.71001
19.516232 -10.689252 -1.0376924 208.71001
4.3346138 -2.374115 -2.0643253 208.71001
31.160645 -17.067024 -0.82486522 208.71001
4.5571389 -2.4959946 -2.0289361 208.71001
12.585844 -6.893404 0 208.71001
4.8444653 -2.6533663 -2.0103943 208.71001
39.411579 -21.586149 1.0432788 208.71001
5.1350212 -2.8125069 -1.978323 208.71001
39.38641 -21.572365 2.0942044 208.71001
5.4839749 -3.0036325 -1.9510796 208.71001
39.516903 -21.643837 3.1506209 208.71001
5.9218392 -3.2434556 -1.9360768 208.71001
39.471809 -21.619139 4.1987157 208.71001
6.4568605 -3.5364928 -1.9272436 208.71001
39.453297 -21.609001 5.2604651 208.71001
6.8257551 -3.7385404 -1.844013 208.71001
39.471069 -21.618734 6.3248606 208.71001
6.940382 -3.8013227 -1.6820055 208.71001
9.4742537 -5.2279115 -1.7778136 208.89
10.688723 -5.8980579 -1.715726 208.89
11.908614 -6.571197 -1.5905677 208.89
12.502828 -6.8990846 -1.3322561 208.89
4.0520587 -2.235934 -2.0605278 208.89
19.454567 -10.735067 -1.0362017 208.89
4.3287497 -2.3886125 -2.0650961 208.89
31.084114 -17.152275 -0.82426172 208.89
4.5574307 -2.5147991 -2.0325737 208.89
39.229843 -21.647104 0 208.89
4.8229418 -2.6613088 -2.0049222 208.89
39.159752 -21.608429 1.0384045 208.89
5.1245012 -2.8277097 -1.9776827 208.89
39.126034 -21.589821 2.0839562 208.89
5.4895558 -3.0291479 -1.9564413 208.89
39.268787 -21.668592 3.136251 208.89
5.9183531 -3.265759 -1.9382819 208.89
39.215393 -21.639132 4.1786509 208.89
6.4711289 -3.5707817 -1.934841 208.89
39.186943 -21.623432 5.2339826 208.89
6.8242002 -3.7656071 -1.8467797 208.89
39.203541 -21.632591 6.292851 208.89
6.9232669 -3.8202724 -1.6807581 208.89
8.3253317 -4.5939345 -1.7915317 208.89
9.5018272 -5.279964 -1.7859195 209.06
10.627895 -5.9056959 -1.7087673 209.06
11.904693 -6.6151853 -1.5926584 209.06
12.489264 -6.9400196 -1.3329992 209.06
4.0374212 -2.2435095 -2.0564604 209.06
19.426121 -10.794684 -1.036388 209.06
4.3216434 -2.4014456 -2.0650961 209.06
31.027843 -17.241514 -0.82412249 209.06
4.5466919 -2.5265005 -2.0311186 209.06
12.567976 -6.9837575 0 209.06
4.803525 -2.6692169 -2.0001338 209.06
38.910206 -21.621576 1.0334839 209.06
5.1177449 -2.8438222 -1.978323 209.06
38.878437 -21.603924 2.0741737 209.06
5.4872198 -3.0491316 -1.9588243 209.06
39.019463 -21.682287 3.1214626 209.06
5.9119987 -3.2851722 -1.9393845 209.06
38.959545 -21.648993 4.1582146 209.06
6.4706531 -3.5956047 -1.93788 209.06
38.933346 -21.634436 5.208662 209.06
6.7925839 -3.7744949 -1.8412462 209.06
38.947021 -21.642033 6.2619543 209.06
6.9255819 -3.8483989 -1.6840847 209.06
38.919888 -21.626955 7.3152018 209.06
6.9784999 -3.8778045 -1.5041757 209.06
9.5764627 -5.3608818 -1.8031044 209.24001
10.585094 -5.9255114 -1.7048705 209.24001
11.871718 -6.6457601 -1.5910323 209.24001
12.46045 -6.9753308 -1.3322561 209.24001
12.633794 -7.0723686 -1.0124454 209.24001
4.0367303 -2.2597523 -2.0597143 209.24001
12.589882 -7.0477862 -0.67285103 209.24001
4.3156881 -2.4159119 -2.0658669 209.24001
12.584466 -7.0447545 -0.33483893 209.24001
4.5452347 -2.5444119 -2.0340285 209.24001
12.582622 -7.0437222 0 209.24001
4.7901959 -2.6815403 -1.9980817 209.24001
12.556551 -7.0291281 0.33409616 209.24001
5.1104388 -2.8608117 -1.9789633 209.24001
38.620358 -21.619587 2.0640185 209.24001
5.4876089 -3.0719507 -1.9623988 209.24001
38.780544 -21.709257 3.1077905 209.24001
5.893261 -3.2990336 -1.9366281 209.24001
38.694988 -21.661364 4.1372209 209.24001
6.4610133 -3.6168602 -1.9383866 209.24001
38.671051 -21.647964 5.1826444 209.24001
6.7789946 -3.7948651 -1.8407851 209.24001
38.695652 -21.661734 6.23245 209.24001
6.9339418 -3.8816044 -1.6890746 209.24001
38.658878 -21.64115 7.2788868 209.24001
6.9937229 -3.9150698 -1.5101005 209.24001
9.541604 -5.3786116 -1.7995378 209.41
10.427717 -5.8781147 -1.6823244 209.41
11.851948 -6.6809549 -1.5910323 209.41
12.463985 -7.0259609 -1.3348571 209.41
4.0284162 -2.2708223 -2.0589008 209.41
19.358078 -10.912169 -1.0362949 209.41
4.3052855 -2.4268937 -2.0643253 209.41
30.855755 -17.393419 -0.82235843 209.41
4.544157 -2.5615458 -2.0369384 209.41
12.56341 -7.0820069 0 209.41
4.7838554 -2.6966641 -1.9987657 209.41
38.423817 -21.659546 1.0240602 209.41
5.1035786 -2.8768926 -1.9796034 209.41
38.361122 -21.624203 2.0535839 209.41
5.4817967 -3.0900943 -1.9635903 209.41
38.521301 -21.714497 3.092165 209.41
5.8683739 -3.3080082 -1.9316666 209.41
38.446667 -21.672424 4.117528 209.41
6.4553099 -3.6388648 -1.9399061 209.41
38.433605 -21.665062 5.1594138 209.41
6.779572 -3.8216517 -1.844013 209.41
38.4328 -21.664608 6.2004399 209.41
6.8525229 -3.8627741 -1.6720258 209.41
38.39679 -21.644308 7.2415991 209.41
8.3226757 -4.6915007 -1.8000487 209.41
9.459445 -5.3715291 -1.7872165 209.59
10.557312 -5.9949508 -1.7062622 209.59
11.851629 -6.7299266 -1.5938199 209.59
12.447046 -7.0680332 -1.3354144 209.59
12.607705 -7.1592631 -1.0138406 209.59
4.022851 -2.284369 -2.0597143 209.59
12.577866 -7.1423187 -0.674528 209.59
4.2896161 -2.4358509 -2.0604711 209.59
12.596836 -7.153091 -0.33632442 209.59
4.5441875 -2.5804088 -2.040576 209.59
12.591535 -7.1500807 0 209.59
4.7753601 -2.7116797 -1.9987657 209.59
5.0928679 -2.8919761 -1.9789633 209.59
38.117535 -21.644974 2.044174 209.59
5.4770422 -3.1101289 -1.9653776 209.59
38.277668 -21.735905 3.0780742 209.59
5.8612957 -3.3283265 -1.9327692 209.59
38.196568 -21.689854 4.0980206 209.59
6.4354339 -3.6543498 -1.9373736 209.59
38.173611 -21.676817 5.1336284 209.59
6.8115325 -3.8679168 -1.8560021 209.59
38.192326 -21.687445 6.1726055 209.59
6.8573656 -3.8939428 -1.6761841 209.59
38.153553 -21.665428 7.2085266 209.59
8.3181505 -4.7234468 -1.8022705 209.59
10.511969 -6.0105195 -1.7018087 209.75999
11.8592 -6.7808375 -1.5975367 209.75999
12.453679 -7.120748 -1.338387 209.75999
4.019228 -2.2981088 -2.0613413 209.75999
19.265043 -11.015341 -1.0348974 209.75999
4.2935843 -2.4549799 -2.0658669 209.75999
4.5445976 -2.5985041 -2.0442133 209.75999
4.7640305 -2.7239709 -1.9973977 209.75999
37.91066 -21.676506 1.013894 209.75999
5.0793304 -2.9042525 -1.9770426 209.75999
37.881443 -21.659801 2.0349505 209.75999
5.4677906 -3.1263659 -1.9653776 209.75999
38.039806 -21.750349 3.0641229 209.75999
5.8647466 -3.3533368 -1.9371793 209.75999
37.953987 -21.701281 4.0788851 209.75999
6.4245629 -3.6734281 -1.9373736 209.75999
37.928059 -21.686455 5.1092367 209.75999
6.8338151 -3.9074297 -1.8652244 209.75999
37.94556 -21.696461 6.1431007 209.75999
6.8984284 -3.9443741 -1.6890746 209.75999
37.941765 -21.69429 7.1806417 209.75999
8.317749 -4.7559114 -1.8052329 209.75999
10.463579 -6.0192552 -1.6965201 209.91
11.863792 -6.8247385 -1.6005566 209.91
12.655938 -7.280427 -1.3621674 209.91
4.0147815 -2.3095341 -2.0621548 209.91
19.220554 -11.056773 -1.0340589 209.91
4.2791443 -2.461611 -2.0620127 209.91
30.631737 -17.621143 -0.82045513 209.91
4.542624 -2.6131797 -2.0463958 209.91
37.702755 -21.688803 0 209.91
4.7585115 -2.737371 -1.9980817 209.91
37.664867 -21.667007 1.008834 209.91
5.0733519 -2.9184852 -1.9776827 209.91
37.653168 -21.660276 2.0257268 209.91
5.4628968 -3.1425738 -1.9665691 209.91
37.795959 -21.74242 3.0490556 209.91
5.8792777 -3.3821003 -1.9448972 209.91
37.708897 -21.692335 4.0586343 209.91
6.4065385 -3.685411 -1.934841 209.91
37.698963 -21.686623 5.0860066 209.91
6.8775434 -3.9563603 -1.8799802 209.91
37.70322 -21.68907 6.1130395 209.91
6.8812957 -3.9585187 -1.6874113 209.91
37.708637 -21.692186 7.1472449 209.91
7.0191731 -4.0688725 -1.3329549 210.10001
10.416145 -6.0380282 -1.6920666 210.10001
11.832502 -6.8590617 -1.5993952 210.10001
12.671351 -7.3453255 -1.3664404 210.10001
3.9928741 -2.3145883 -2.0548334 210.10001
19.218351 -11.140489 -1.0359223 210.10001
4.2757473 -2.478564 -2.0643253 210.10001
30.541996 -17.704576 -0.8196196 210.10001
4.5419922 -2.6329007 -2.0500331 210.10001
37.466248 -21.718424 0 210.10001
4.7737975 -2.7672737 -2.0083423 210.10001
37.425018 -21.694523 1.0043311 210.10001
5.0570889 -2.9314919 -1.9751219 210.10001
37.385822 -21.671803 2.0151989 210.10001
5.4359279 -3.1510973 -1.9606116 210.10001
37.54414 -21.763577 3.0345461 210.10001
5.8464074 -3.3890438 -1.9377307 210.10001
37.459305 -21.714399 4.0394988 210.10001
6.4076734 -3.7143981 -1.9388931 210.10001
37.448109 -21.707909 5.0618472 210.10001
6.9603558 -4.0347772 -1.9062639 210.10001
37.464882 -21.717632 6.0860395 210.10001
6.8715158 -3.9832783 -1.6882429 210.10001
37.440144 -21.703293 7.1099572 210.10001
7.0009646 -4.0844798 -1.3316579 210.25999
10.322263 -6.0221801 -1.679541 210.25999
11.845902 -6.911097 -1.6038089 210.25999
12.64047 -7.374661 -1.3653257 210.25999
3.9816606 -2.3229673 -2.0523932 210.25999
19.178537 -11.189079 -1.0354564 210.25999
4.2608395 -2.4858446 -2.0604711 210.25999
30.483803 -17.784758 -0.81938744 210.25999
4.5410585 -2.6493294 -2.052943 210.25999
37.222336 -21.716133 0 210.25999
4.7546878 -2.7739642 -2.0035541 210.25999
37.17086 -21.6861 0.99913186 210.25999
5.0619755 -2.9532411 -1.9802437 210.25999
37.156044 -21.677456 2.0060687 210.25999
5.4188619 -3.1614544 -1.9576328 210.25999
37.312611 -21.768799 3.0207343 210.25999
5.8485446 -3.4121387 -1.9415896 210.25999
37.236839 -21.724592 4.0220351 210.25999
6.3989468 -3.7332523 -1.9393996 210.25999
37.205467 -21.706289 5.0372233 210.25999
6.9524236 -4.05616 -1.9071862 210.25999
37.209072 -21.708393 6.0543084 210.25999
7.639338 -4.4569173 -1.8799375 210.25999
37.227676 -21.719248 7.0811 210.25999
6.9908261 -4.0785646 -1.5249126 210.25999
9.3454313 -5.4939003 -1.7810559 210.45
10.34492 -6.0814695 -1.6864996 210.45
11.822919 -6.9503412 -1.6038089 210.45
12.664012 -7.4447947 -1.3705276 210.45
3.9739356 -2.336158 -2.0523932 210.45
19.144773 -11.254641 -1.0356427 210.45
4.2557545 -2.5018311 -2.0620127 210.45
30.416039 -17.880682 -0.81915534 210.45
4.530642 -2.6634295 -2.0522156 210.45
37.008739 -21.756334 0 210.45
4.7746258 -2.8068602 -2.0158668 210.45
36.936718 -21.713993 0.9947682 210.45
5.0407205 -2.9632893 -1.975762 210.45
36.935841 -21.713478 1.9980563 210.45
5.4198694 -3.1861796 -1.9618031 210.45
37.059624 -21.786247 3.0060854 210.45
5.8355403 -3.4305401 -1.9410383 210.45
36.980907 -21.739971 4.0021563 210.45
6.3781919 -3.7495489 -1.9368671 210.45
36.958611 -21.726864 5.0135288 210.45
6.9238353 -4.0703163 -1.9030361 210.45
36.966145 -21.731293 6.0264735 210.45
7.688602 -4.5198998 -1.8957388 210.45
36.975109 -21.736563 7.0467305 210.45
9.3273916 -5.5205994 -1.7807318 210.62
10.335352 -6.1171808 -1.6878914 210.62
11.815921 -6.9934845 -1.6056672 210.62
12.679568 -7.5046511 -1.3746148 210.62
3.9496908 -2.337702 -2.0434449 210.62
19.075191 -11.290026 -1.0336863 210.62
4.24196 -2.5106871 -2.0589294 210.62
30.350807 -17.96372 -0.81883043 210.62
4.5211167 -2.6759114 -2.0514879 210.62
36.730606 -21.739729 0 210.62
4.7711287 -2.8238862 -2.0179188 210.62
36.705223 -21.724707 0.99026531 210.62
5.0384283 -2.9820926 -1.978323 210.62
36.682133 -21.71104 1.987808 210.62
5.4202499 -3.2080812 -1.9653776 210.62
36.824844 -21.795506 2.9922738 210.62
5.825336 -3.4478393 -1.9410383 210.62
36.753441 -21.753244 3.9845066 210.62
6.3470588 -3.7566311 -1.930789 210.62
36.726452 -21.73727 4.9907632 210.62
6.8514366 -4.0551572 -1.8864359 210.62
36.742996 -21.747063 6.0005875 210.62
7.6701069 -4.5397034 -1.8944913 210.62
36.715141 -21.730576 7.0094428 210.62
6.8618884 -4.0613432 -1.5023241 210.62
9.2295923 -5.4997582 -1.7651682 210.78999
10.242296 -6.1032114 -1.6756442 210.78999
11.796825 -7.0295291 -1.6058996 210.78999
12.69488 -7.5646648 -1.378702 210.78999
13.951254 -8.3133163 -1.1356354 210.78999
3.9474461 -2.3522165 -2.0458853 210.78999
19.02788 -11.338391 -1.0329409 210.78999
4.2392478 -2.5260963 -2.0612419 210.78999
30.249281 -18.025036 -0.81753057 210.78999
4.5115566 -2.6883605 -2.0507605 210.78999
36.526775 -21.765688 0 210.78999
4.7578859 -2.8351438 -2.0158668 210.78999
36.482582 -21.739353 0.98599458 210.78999
5.0344415 -2.9999385 -1.9802437 210.78999
36.457947 -21.724674 1.9791435 210.78999
5.4139876 -3.2261038 -1.9665691 210.78999
36.598904 -21.80867 2.9791596 210.78999
5.8266411 -3.471997 -1.9448972 210.78999
36.531353 -21.768415 3.9674146 210.78999
6.3358846 -3.7754467 -1.930789 210.78999
36.492855 -21.745476 4.9677653 210.78999
6.89956 -4.111331 -1.9030361 210.78999
36.504768 -21.752575 5.9721961 210.78999
7.6784511 -4.575459 -1.899897 210.78999
36.5047 -21.752535 6.9815578 210.78999
9.123539 -5.4733095 -1.7479835 210.96001
10.25811 -6.1539512 -1.6812111 210.96001
11.786137 -7.0706315 -1.6072934 210.96001
12.715071 -7.6279087 -1.3833467 210.96001
13.989829 -8.3926506 -1.1407974 210.96001
3.9670849 -2.3798971 -2.0597143 210.96001
18.99758 -11.396854 -1.0331272 210.96001
4.2348995 -2.5405619 -2.0627837 210.96001
30.205954 -18.12088 -0.8178091 210.96001
4.4987674 -2.6988595 -2.048578 210.96001
36.275093 -21.761822 0 210.96001
4.7478414 -2.8482814 -2.0151827 210.96001
36.243031 -21.742586 0.98125952 210.96001
5.0303926 -3.017787 -1.9821644 210.96001
36.228859 -21.734085 1.9701995 210.96001
5.4093037 -3.2450998 -1.9683564 210.96001
36.352684 -21.808369 2.9643712 210.96001
5.8196111 -3.4912479 -1.9459997 210.96001
36.297546 -21.775293 3.9490221 210.96001
6.2798576 -3.7673547 -1.9171134 210.96001
36.256126 -21.750443 4.944303 210.96001
6.899013 -4.1387925 -1.9062639 210.96001
36.273628 -21.760942 5.9449182 210.96001
7.6514211 -4.5901704 -1.8965704 210.96001
36.252148 -21.748056 6.9455671 210.96001
7.1629491 -4.2971311 -1.5737928 210.96001
7.6619868 -4.6256547 -1.4704331 211.12
10.288359 -6.2112341 -1.6890048 211.12
11.768046 -7.1045437 -1.6075257 211.12
12.703949 -7.6695614 -1.3844614 211.12
13.985126 -8.4430265 -1.142332 211.12
3.9635518 -2.3928547 -2.0613413 211.12
18.96739 -11.450893 -1.0332204 211.12
4.2277884 -2.5523782 -2.0627837 211.12
30.127846 -18.188625 -0.81706637 211.12
4.4975929 -2.7152631 -2.0514879 211.12
36.061798 -21.77104 0 211.12
4.7463045 -2.8654141 -2.0179188 211.12
36.045235 -21.76104 0.9775458 211.12
5.0268121 -3.0347605 -1.9840851 211.12
36.007256 -21.738111 1.9614418 211.12
5.3936825 -3.2562459 -1.9659733 211.12
36.131088 -21.812872 2.951257 211.12
5.8081932 -3.5064919 -1.9454484 211.12
36.076351 -21.779825 3.9315584 211.12
6.2626877 -3.7808769 -1.9150875 211.12
36.043896 -21.760231 4.9236283 211.12
6.8641038 -4.1439605 -1.8998083 211.12
36.04147 -21.758768 5.9168053 211.12
7.6569953 -4.6226411 -1.9011445 211.12
36.044285 -21.760468 6.9173579 211.12
7.1896205 -4.3404799 -1.5823098 211.12
10.293579 -6.2561336 -1.6929016 211.28999
12.696452 -7.7165289 -1.3861334 211.28999
3.9564345 -2.4046042 -2.0613413 211.28999
18.955526 -11.520609 -1.0344316 211.28999
4.2328129 -2.5725789 -2.0689504 211.28999
30.092543 -18.28936 -0.817577 211.28999
4.4831486 -2.7247255 -2.048578 211.28999
35.81588 -21.767834 0 211.28999
4.7233276 -2.8706992 -2.0117624 211.28999
35.797688 -21.756777 0.9725787 211.28999
5.0210238 -3.0516303 -1.9853655 211.28999
35.78212 -21.747316 1.952684 211.28999
5.3905234 -3.2762012 -1.9683564 211.28999
35.899128 -21.81843 2.9375846 211.28999
5.8043351 -3.5277038 -1.9476535 211.28999
35.85331 -21.790585 3.9142804 211.28999
6.2795491 -3.8165247 -1.9236981 211.28999
35.811115 -21.76494 4.9006305 211.28999
6.8767238 -4.1794701 -1.906725 211.28999
35.826122 -21.774061 5.8920326 211.28999
7.6432457 -4.6453395 -1.9011445 211.28999
35.819344 -21.769941 6.8865552 211.28999
7.0675397 -4.2954421 -1.5582401 211.28999
10.263739 -6.2822375 -1.6912315 211.47
11.378795 -6.9647417 -1.5601362 211.47
12.707815 -7.7782092 -1.3900349 211.47
3.9488609 -2.4170218 -2.0613413 211.47
18.89879 -11.567587 -1.0333136 211.47
4.22471 -2.5858641 -2.0689504 211.47
30.011061 -18.369194 -0.81692713 211.47
4.4697995 -2.7358785 -2.0463958 211.47
35.595497 -21.787321 0 211.47
4.7271094 -2.8933728 -2.0172348 211.47
35.57056 -21.772057 0.96826148 211.47
5.0114121 -3.067389 -1.9853655 211.47
35.558559 -21.764711 1.9442059 211.47
5.3769474 -3.2911265 -1.9671649 211.47
35.684059 -21.841528 2.9255865 211.47
5.786665 -3.5419066 -1.9454484 211.47
35.616531 -21.800194 3.8958879 211.47
6.2757797 -3.841284 -1.9262305 211.47
35.584995 -21.780891 4.8790264 211.47
6.8668795 -4.2030849 -1.9076474 211.47
35.588619 -21.78311 5.8641977 211.47
7.0029078 -4.2863455 -1.7452108 211.47
35.580769 -21.778305 6.853807 211.47
7.2769628 -4.4540892 -1.6074905 211.47
10.229878 -6.3033123 -1.6887264 211.64
11.437566 -7.0474496 -1.5710543 211.64
12.721978 -7.8388615 -1.3941221 211.64
3.9478941 -2.4325616 -2.0645952 211.64
18.893301 -11.641426 -1.0348974 211.64
4.2154479 -2.5974195 -2.0681796 211.64
29.924084 -18.438229 -0.81604511 211.64
4.4632487 -2.7501059 -2.0471232 211.64
35.367233 -21.792118 0 211.64
4.7201037 -2.9083714 -2.0179188 211.64
35.347492 -21.779955 0.96394432 211.64
5.0087414 -3.0862205 -1.9879265 211.64
35.323738 -21.765318 1.9348892 211.64
5.3671589 -3.3070655 -1.9671649 211.64
35.467926 -21.85416 2.9131699 211.64
5.7777672 -3.5600688 -1.9459997 211.64
35.410976 -21.819071 3.8804677 211.64
6.2692962 -3.8629327 -1.92775 211.64
35.352783 -21.783215 4.8560286 211.64
6.8610058 -4.2275248 -1.9094918 211.64
35.360275 -21.78783 5.8371983 211.64
6.9701729 -4.2947898 -1.7402209 211.64
35.359734 -21.787497 6.8236523 211.64
7.1185923 -4.4171553 -1.3764032 211.82001
7.3979349 -4.5904899 -1.2236099 211.82001
11.710754 -7.2666359 -1.6117071 211.82001
12.704058 -7.8829899 -1.3948653 211.82001
3.9371274 -2.4430256 -2.0629683 211.82001
18.871914 -11.710204 -1.035736 211.82001
4.205699 -2.6096768 -2.0674088 211.82001
29.818439 -18.502628 -0.81474531 211.82001
4.4593358 -2.767061 -2.0493057 211.82001
35.14735 -21.809269 0 211.82001
4.7205253 -2.9291313 -2.0220232 211.82001
35.134483 -21.801285 0.95999843 211.82001
4.9941912 -3.0989437 -1.9860058 211.82001
35.09901 -21.779274 1.9263178 211.82001
5.3599877 -3.3259239 -1.9683564 211.82001
35.246517 -21.870804 2.9006138 211.82001
5.779623 -3.5863118 -1.9504099 211.82001
35.176434 -21.827314 3.8622608 211.82001
6.2423334 -3.8734281 -1.9231915 211.82001
35.137329 -21.803051 4.8358183 211.82001
6.8476911 -4.2490582 -1.9094918 211.82001
35.143559 -21.806915 5.8127036 211.82001
7.0264621 -4.3599873 -1.7576854 211.82001
35.143543 -21.806906 6.7951193 211.82001
9.1441936 -5.7117071 -1.7713288 211.99001
7.3674846 -4.6019278 -1.2208264 211.99001
11.581315 -7.2339988 -1.5968398 211.99001
12.699191 -7.9322534 -1.3969089 211.99001
3.9298615 -2.4546964 -2.0629683 211.99001
18.843864 -11.77038 -1.0361086 211.99001
4.1995025 -2.6231215 -2.0681796 211.99001
29.734581 -18.573013 -0.81395614 211.99001
4.4479461 -2.7783058 -2.0478506 211.99001
34.929821 -21.818098 0 211.99001
4.7038436 -2.9381461 -2.0186028 211.99001
34.896671 -21.797392 0.95526344 211.99001
4.9881883 -3.1157556 -1.9872862 211.99001
34.888512 -21.792297 1.9183055 211.99001
5.3500957 -3.3418126 -1.9683564 211.99001
35.01395 -21.870647 2.886802 211.99001
5.7673264 -3.6024261 -1.9498587 211.99001
34.957821 -21.835588 3.8453546 211.99001
6.2291722 -3.8909073 -1.922685 211.99001
34.919167 -21.811443 4.8146787 211.99001
6.8350534 -4.2693567 -1.9094918 211.99001
34.92416 -21.814564 5.787096 211.99001
6.9935842 -4.3683796 -1.7526956 211.99001
34.921345 -21.812803 6.7646408 211.99001
6.8761778 -4.2950444 -1.5275048 211.99001
7.3863039 -4.6442056 -1.4334697 212.16
7.3571515 -4.6258755 -1.2213831 212.16
11.650611 -7.3254271 -1.6093841 212.16
12.672228 -7.9677777 -1.3965373 212.16
3.9179208 -2.463428 -2.0605278 212.16
18.846066 -11.849634 -1.0381583 212.16
4.1979504 -2.6394994 -2.0712628 212.16
29.577782 -18.597298 -0.81117082 212.16
4.4365287 -2.7895076 -2.0463958 212.16
34.700699 -21.818378 0 212.16
4.6823769 -2.9440868 -2.0131307 212.16
34.687965 -21.810371 0.95131761 212.16
4.9676938 -3.1234822 -1.9828047 212.16
34.664719 -21.795755 1.9095478 212.16
5.3369246 -3.3556395 -1.9671649 212.16
34.805336 -21.884171 2.8749433 212.16
5.7680054 -3.6266854 -1.9537176 212.16
34.756329 -21.853355 3.8303061 212.16
6.2192383 -3.9104023 -1.9231915 212.16
34.707993 -21.822964 4.7944684 212.16
6.8190608 -4.2875462 -1.9085696 212.16
34.716766 -21.828482 5.7634363 212.16
6.9375329 -4.3620367 -1.7418841 212.16
34.712788 -21.825979 6.7367558 212.16
6.954916 -4.3729663 -1.5478715 212.16
7.3632994 -4.658483 -1.4315242 212.32001
10.169414 -6.4338059 -1.6912315 212.32001
11.687185 -7.394043 -1.6172823 212.32001
12.676853 -8.0201693 -1.3995099 212.32001
3.9141142 -2.4763131 -2.0621548 212.32001
18.782513 -11.88299 -1.0364813 212.32001
4.1827655 -2.6462786 -2.0674088 212.32001
29.495319 -18.66058 -0.81033528 212.32001
4.433445 -2.8048739 -2.048578 212.32001
34.523014 -21.841413 0 212.32001
4.6630197 -2.9501173 -2.0083423 212.32001
34.464714 -21.804529 0.94686115 212.32001
4.9637556 -3.1403816 -1.9847254 212.32001
34.468655 -21.807022 1.9020945 212.32001
5.3307595 -3.3725715 -1.9683564 212.32001
34.588974 -21.883144 2.8621082 212.32001
5.7529812 -3.6396949 -1.9520638 212.32001
34.528564 -21.844927 3.8119135 212.32001
6.200119 -3.9225821 -1.9206589 212.32001
34.494152 -21.823154 4.7733293 212.32001
6.8152843 -4.3117743 -1.9108752 212.32001
34.510063 -21.833221 5.7392201 212.32001
7.0278239 -4.4462404 -1.7676651 212.32001
34.503269 -21.828922 6.7078986 212.32001
7.0772123 -4.4774866 -1.5778662 212.32001
7.0556817 -4.4949646 -1.3744577 212.5
10.159174 -6.4721074 -1.6929016 212.5
11.719186 -7.4659448 -1.6249483 212.5
12.676787 -8.076004 -1.4022967 212.5
3.9063156 -2.4885974 -2.0621548 212.5
18.689484 -11.906515 -1.0334067 212.5
4.1791005 -2.6623807 -2.0697212 212.5
29.340429 -18.691916 -0.80768925 212.5
4.4277539 -2.8207903 -2.0500331 212.5
34.288921 -21.844454 0 212.5
4.6458035 -2.9597032 -2.0049222 212.5
34.267879 -21.831047 0.94333309 212.5
4.9586592 -3.1590145 -1.9866461 212.5
34.244957 -21.816444 1.8935231 212.5
5.3249688 -3.3923793 -1.9701436 212.5
34.373665 -21.898439 2.8499706 212.5
5.7593541 -3.6691132 -1.9581277 212.5
34.318691 -21.863417 3.7963076 212.5
6.1959243 -3.9472389 -1.9231915 212.5
34.269611 -21.832151 4.7517252 212.5
6.8066292 -4.3363008 -1.9122585 212.5
34.280949 -21.839373 5.7124991 212.5
6.9164758 -4.406281 -1.7431316 212.5
34.279728 -21.838594 6.6777439 212.5
7.1957207 -4.5841794 -1.6074905 212.5
7.080524 -4.5403819 -1.3819153 212.67
10.086576 -6.4680109 -1.6839945 212.67
11.686949 -7.4942493 -1.6235545 212.67
12.64774 -8.1103563 -1.4017392 212.67
13.88767 -8.9054604 -1.1536325 212.67
3.9004526 -2.501163 -2.0629683 212.67
18.643984 -11.955444 -1.0328478 212.67
4.1742897 -2.6767612 -2.0712628 212.67
29.170387 -18.705494 -0.80453253 212.67
4.4287744 -2.8399491 -2.0543981 212.67
34.07412 -21.85001 0 212.67
4.6401653 -2.9755034 -2.0062902 212.67
34.056522 -21.838726 0.93929446 212.67
4.9556446 -3.1778042 -1.9892069 212.67
34.027039 -21.819818 1.8850449 212.67
5.3148799 -3.4081638 -1.9701436 212.67
34.160744 -21.905558 2.8376935 212.67
5.7532973 -3.6892986 -1.9597816 212.67
34.104477 -21.869476 3.7797728 212.67
6.1907001 -3.9697828 -1.9252175 212.67
34.065891 -21.844734 4.7324438 212.67
6.7789888 -4.347023 -1.9081085 212.67
34.065948 -21.84477 5.687448 212.67
6.811151 -4.3676467 -1.7198455 212.67
34.073566 -21.849655 6.6501837 212.67
7.0736537 -4.5656514 -1.3832122 212.84
7.3666306 -4.7547512 -1.2322387 212.84
11.647972 -7.5181198 -1.6212314 212.84
12.665449 -8.1748447 -1.4063839 212.84
3.8838036 -2.5067799 -2.0580873 212.84
18.601715 -12.006376 -1.0324751 212.84
4.1632285 -2.6871331 -2.0697212 212.84
14.832047 -9.5732632 -0.4098562 212.84
4.4218941 -2.8540874 -2.0551255 212.84
33.866306 -21.858824 0 212.84
4.6392117 -2.994354 -2.0097103 212.84
33.835342 -21.838839 0.93497723 212.84
4.949378 -3.1945488 -1.9904875 212.84
33.814434 -21.825342 1.8768463 212.84
5.2870994 -3.4125295 -1.9635903 212.84
33.954792 -21.915936 2.8259742 212.84
5.7310185 -3.6990547 -1.9559227 212.84
33.902245 -21.882019 3.7645385 212.84
6.1805196 -3.9891827 -1.925724 212.84
33.844044 -21.844452 4.7106075 212.84
6.7627912 -4.3650064 -1.9071862 212.84
33.854549 -21.851234 5.6629534 212.84
6.8589773 -4.4270897 -1.7352309 212.84
33.867645 -21.859688 6.622623 212.84
6.9306006 -4.4733186 -1.5541667 212.84
7.0294895 -4.5684934 -1.3773758 213.02
6.8949804 -4.4810753 -1.1556934 213.02
11.645948 -7.5687485 -1.6242514 213.02
12.624677 -8.2048283 -1.4047118 213.02
3.8697813 -2.5149863 -2.0548334 213.02
18.567255 -12.066933 -1.0326614 213.02
4.1640501 -2.7062328 -2.0743463 213.02
14.731484 -9.5740509 -0.4079065 213.02
4.4113436 -2.8669498 -2.0543981 213.02
33.644863 -21.865932 0 213.02
4.637661 -3.0140343 -2.0131307 213.02
33.622387 -21.851324 0.93098497 213.02
4.9424949 -3.212147 -1.9917679 213.02
33.61504 -21.846548 1.8695792 213.02
5.2891593 -3.4374456 -1.9683564 213.02
33.74358 -21.930086 2.8141158 213.02
5.7274294 -3.7222793 -1.9586791 213.02
33.686398 -21.892925 3.7481897 213.02
6.1679568 -4.0085797 -1.925724 213.02
33.641998 -21.864069 4.6920238 213.02
6.7474127 -4.3851705 -1.906725 213.02
33.656204 -21.873302 5.6412425 213.02
6.8138695 -4.4283609 -1.7273303 213.02
33.64822 -21.868113 6.5931172 213.02
6.8555384 -4.4554415 -1.5404655 213.02
6.8292751 -4.4672503 -1.3407366 213.19
6.8882842 -4.5058498 -1.1568068 213.19
11.63009 -7.6076188 -1.6251806 213.19
12.638606 -8.2673225 -1.4089849 213.19
13.866383 -9.0704498 -1.158655 213.19
3.8424249 -2.5134547 -2.0442584 213.19
18.544744 -12.130719 -1.0334067 213.19
4.1560025 -2.718576 -2.0743463 213.19
14.866994 -9.7249823 -0.41245583 213.19
4.407495 -2.8830853 -2.0565803 213.19
33.444267 -21.87698 0 213.19
4.6507168 -3.0421846 -2.0227072 213.19
33.428566 -21.866709 0.92741048 213.19
4.9297714 -3.2247231 -1.9904875 213.19
33.407959 -21.85323 1.8616601 213.19
5.2789369 -3.4531238 -1.9683564 213.19
33.536442 -21.937275 2.8022571 213.19
5.7227955 -3.7434661 -1.9608841 213.19
33.477974 -21.899029 3.7322121 213.19
6.1608934 -4.0300403 -1.9272436 213.19
33.435677 -21.871361 4.6722779 213.19
6.7311149 -4.4030404 -1.9058028 213.19
33.451935 -21.881994 5.6178613 213.19
6.7253914 -4.3992968 -1.7082025 213.19
33.457668 -21.885746 6.5684748 213.19
6.8307753 -4.4682317 -1.5378733 213.19
6.8465228 -4.5093083 -1.3468972 213.37
7.0576906 -4.6483893 -1.1877033 213.37
11.619404 -7.6528592 -1.627039 213.37
12.625875 -8.3157492 -1.4104711 213.37
13.85448 -9.1249418 -1.1600502 213.37
3.8238287 -2.5184789 -2.038564 213.37
18.519892 -12.19771 -1.034152 213.37
4.1381941 -2.7255285 -2.0697212 213.37
14.869764 -9.7936363 -0.41338426 213.37
4.3921924 -2.8928187 -2.0536704 213.37
33.243423 -21.895033 0 213.37
4.648984 -3.0619488 -2.0261273 213.37
33.206081 -21.870438 0.92313969 213.37
4.9275279 -3.2454057 -1.9936886 213.37
33.19899 -21.86577 1.853834 213.37
5.263279 -3.4665406 -1.9665691 213.37
33.325733 -21.949244 2.7903984 213.37
5.7029791 -3.756139 -1.9581277 213.37
33.279293 -21.918659 3.717721 213.37
6.1465864 -4.0483112 -1.9267371 213.37
33.227448 -21.884512 4.6527648 213.37
6.7237501 -4.4284468 -1.9076474 213.37
33.24078 -21.893291 5.5939236 213.37
6.8275352 -4.4968028 -1.7377259 213.37
33.230522 -21.886536 6.5373478 213.37
6.7395587 -4.438859 -1.520469 213.37
6.9029994 -4.5741954 -1.3605154 213.53
10.07586 -6.6766558 -1.6987469 213.53
11.636074 -7.7105141 -1.6323819 213.53
12.609244 -8.3553743 -1.4112142 213.53
13.867196 -9.1889429 -1.1632589 213.53
3.8381035 -2.5432763 -2.0499527 213.53
18.494083 -12.254898 -1.0346179 213.53
4.12749 -2.7350349 -2.0681796 213.53
4.3872027 -2.907131 -2.0551255 213.53
33.033772 -21.889458 0 213.53
4.6404152 -3.0749192 -2.0261273 213.53
33.001537 -21.868099 0.91914743 213.53
4.9184461 -3.2591531 -1.9936886 213.53
32.992912 -21.862385 1.8457285 213.53
5.2567611 -3.4833341 -1.9677606 213.53
33.119614 -21.946342 2.7782609 213.53
5.7100964 -3.7837315 -1.9641918 213.53
33.071877 -21.914709 3.7013721 213.53
6.138483 -4.0675974 -1.92775 213.53
33.022141 -21.881752 4.6325545 213.53
6.7113576 -4.447206 -1.9076474 213.53
33.032578 -21.888666 5.5691509 213.53
6.735044 -4.4629016 -1.7173506 213.53
33.037663 -21.892036 6.5114083 213.53
6.728775 -4.4587474 -1.5208393 213.53
6.988739 -4.662672 -1.3802941 213.71001
11.658062 -7.7779007 -1.6388863 213.71001
12.601155 -8.4071035 -1.413258 213.71001
13.854856 -9.243535 -1.1646541 213.71001
3.8452935 -2.5654616 -2.0580873 213.71001
18.473774 -12.325134 -1.0356427 213.71001
4.117342 -2.7469642 -2.0674088 213.71001
14.605142 -9.7441015 -0.40762797 213.71001
4.3826976 -2.9240012 -2.057308 213.71001
32.836735 -21.90766 0 213.71001
4.6338592 -3.0915685 -2.0274954 213.71001
32.827888 -21.901758 0.91622287 213.71001
4.9050303 -3.2724857 -1.9924082 213.71001
32.791115 -21.877224 1.8382752 213.71001
5.2473803 -3.500891 -1.9683564 213.71001
32.897816 -21.948412 2.7654257 213.71001
5.6789904 -3.7888479 -1.9575765 213.71001
32.872002 -21.93119 3.6866951 213.71001
6.1369405 -4.0943785 -1.9312955 213.71001
32.830952 -21.903803 4.6153641 213.71001
6.7119231 -4.4779887 -1.9117974 213.71001
32.83514 -21.906597 5.5474396 213.71001
6.6835608 -4.4590664 -1.7077867 213.71001
32.839027 -21.909191 6.4857931 213.71001
6.8488002 -4.5693092 -1.5512042 213.71001
6.9847026 -4.6864505 -1.3819153 213.86
7.3992357 -4.9645853 -1.2522795 213.86
11.654155 -7.8194628 -1.6412094 213.86
12.600599 -8.4544878 -1.4156731 213.86
13.850491 -9.2931147 -1.1663282 213.86
3.8340123 -2.5724659 -2.0556469 213.86
14.801598 -9.9312687 -0.83123469 213.86
4.1177988 -2.7628751 -2.0712628 213.86
14.549695 -9.7622519 -0.40679237 213.86
4.3781214 -2.937541 -2.0587628 213.86
32.648064 -21.905519 0 213.86
4.6226282 -3.1015952 -2.0261273 213.86
32.59444 -21.869539 0.91130221 213.86
4.8980198 -3.2863715 -1.9930484 213.86
32.594372 -21.869495 1.8304492 213.86
5.2366114 -3.5135529 -1.9677606 213.86
32.677879 -21.925526 2.7517533 213.86
5.6770339 -3.8090582 -1.9603329 213.86
32.692104 -21.93507 3.6729472 213.86
6.1310205 -4.1136646 -1.9328151 213.86
32.626686 -21.891176 4.5946894 213.86
6.6904802 -4.4890394 -1.9090307 213.86
32.636238 -21.897585 5.5235019 213.86
6.7335954 -4.5179682 -1.7235879 213.86
32.650452 -21.907122 6.4598541 213.86
6.9249468 -4.6463571 -1.5712007 213.86
7.1310058 -4.8189836 -1.4140152 214.05
7.0775113 -4.7828331 -1.2005072 214.05
11.634745 -7.8625154 -1.6421386 214.05
12.588993 -8.5073767 -1.4175309 214.05
3.8194053 -2.5810738 -2.0523932 214.05
14.682508 -9.9221296 -0.82638997 214.05
4.1116724 -2.7785816 -2.0728047 214.05
14.566942 -9.8440332 -0.40818503 214.05
4.3729868 -2.9551725 -2.0609453 214.05
32.441017 -21.922956 0 214.05
4.6138749 -3.1179595 -2.0268114 214.05
32.432278 -21.917051 0.90879542 214.05
4.8902345 -3.3047175 -1.9943289 214.05
32.397522 -21.893564 1.8234617 214.05
5.2201858 -3.5276918 -1.9659733 214.05
32.504158 -21.965626 2.743243 214.05
5.6803007 -3.8386276 -1.9658456 214.05
32.475643 -21.946356 3.6567838 214.05
6.1221547 -4.1372232 -1.9343345 214.05
32.420597 -21.909157 4.5758729 214.05
6.6900692 -4.521008 -1.9131807 214.05
32.427242 -21.913649 5.5003991 214.05
6.6440158 -4.4898858 -1.70446 214.05
32.437 -21.920242 6.4319692 214.05
6.730372 -4.5482435 -1.5304673 214.05
7.0008121 -4.7613201 -1.3909941 214.22
7.0714774 -4.8093805 -1.2018989 214.22
11.62122 -7.9037046 -1.6435324 214.22
12.581809 -8.5570097 -1.4195745 214.22
14.740558 -10.025196 -0.83132786 214.22
4.0927281 -2.783504 -2.0674088 214.22
14.55255 -9.8973303 -0.40860283 214.22
4.3657403 -2.9691823 -2.0616727 214.22
32.263371 -21.942633 0 214.22
4.6185894 -3.1411476 -2.0329678 214.22
32.198467 -21.898491 0.90406042 214.22
4.8835411 -3.3213437 -1.9956093 214.22
32.213478 -21.908701 1.8167536 214.22
5.2128534 -3.5453122 -1.9671649 214.22
32.341507 -21.995771 2.7350118 214.22
5.659348 -3.8489773 -1.962538 214.22
32.283592 -21.956385 3.6424785 214.22
6.1130519 -4.157546 -1.9353476 214.22
32.230614 -21.920353 4.558218 214.22
6.6669707 -4.5342712 -1.910414 214.22
32.231068 -21.920662 5.4781318 214.22
6.7115459 -4.5645876 -1.7252512 214.22
32.241268 -21.927599 6.4060302 214.22
6.5998349 -4.4886117 -1.5038053 214.22
6.7464452 -4.6193871 -1.3433306 214.39999
9.9978342 -6.8456602 -1.7029221 214.39999
11.620918 -7.9570088 -1.6470169 214.39999
12.564722 -8.6032448 -1.4206892 214.39999
14.570521 -9.9766445 -0.82350183 214.39999
4.0763497 -2.7911348 -2.0635545 214.39999
4.361002 -2.9860406 -2.0638552 214.39999
32.05566 -21.948969 0 214.39999
4.6149015 -3.159889 -2.0357039 214.39999
32.028877 -21.93063 0.90122873 214.39999
4.8808999 -3.3420219 -1.9988105 214.39999
32.007671 -21.916111 1.8090208 214.39999
5.1985393 -3.559514 -1.9659733 214.39999
32.153717 -22.016109 2.724967 214.39999
5.6392965 -3.8613069 -1.9597816 214.39999
32.083008 -21.967695 3.6276159 214.39999
6.0951715 -4.1734509 -1.9338281 214.39999
32.032104 -21.932838 4.539866 214.39999
6.6446643 -4.5496964 -1.9081085 214.39999
32.042747 -21.940128 5.4578123 214.39999
6.7246137 -4.6044393 -1.7323202 214.39999
32.05172 -21.94627 6.3820362 214.39999
6.6359735 -4.543746 -1.5152848 214.39999
6.763586 -4.6606603 -1.3494911 214.57001
10.006834 -6.8955221 -1.7079324 214.57001
11.605437 -7.9970894 -1.6481785 214.57001
11.570051 -7.9727054 -1.310891 214.57001
3.0796869 -2.1221547 -1.6651798 214.57001
14.455312 -9.960885 -0.81865716 214.57001
4.0710893 -2.8053114 -2.0650961 214.57001
14.639997 -10.088148 -0.41278076 214.57001
4.3582597 -3.003195 -2.0667651 214.57001
31.852058 -21.948658 0 214.57001
4.5962205 -3.1671693 -2.0315998 214.57001
31.822073 -21.927996 0.89723647 214.57001
4.8647213 -3.3521886 -1.9962496 214.57001
31.8109 -21.920296 1.8015674 214.57001
5.1785221 -3.5684228 -1.9623988 214.57001
31.869753 -21.960852 2.7064116 214.57001
5.6563101 -3.8976576 -1.9697045 214.57001
31.888149 -21.973526 3.6129389 214.57001
6.0971003 -4.2013979 -1.9383866 214.57001
31.832756 -21.935358 4.5208173 214.57001
6.626328 -4.5660787 -1.906725 214.57001
31.851934 -21.948572 5.4363794 214.57001
6.715755 -4.6277013 -1.7335677 214.57001
31.854832 -21.950569 6.3557725 214.57001
6.6224627 -4.5634151 -1.5152848 214.57001
6.4926548 -4.5007586 -1.2979368 214.73
11.581428 -8.0283346 -1.6479461 214.73
11.678668 -8.0957432 -1.3257537 214.73
13.766818 -9.5432653 -1.1713507 214.73
3.08426 -2.1380329 -1.6708741 214.73
14.425797 -10.000074 -0.818564 214.73
4.07234 -2.8229775 -2.0697212 214.73
14.562471 -10.094818 -0.41138813 214.73
4.3437314 -3.0111084 -2.0638552 214.73
31.695307 -21.971434 0 214.73
4.5966253 -3.1864164 -2.0357039 214.73
31.639114 -21.93248 0.89380127 214.73
4.8413267 -3.3560452 -1.9904875 214.73
31.624777 -21.922541 1.7944868 214.73
5.1779518 -3.5893962 -1.9659733 214.73
31.685326 -21.964514 2.6959481 214.73
5.6311836 -3.9035802 -1.964743 214.73
31.697372 -21.972864 3.5982621 214.73
6.0758033 -4.2117939 -1.9353476 214.73
31.653833 -21.942682 4.5040917 214.73
6.6167502 -4.5867825 -1.9076474 214.73
31.665186 -21.950552 5.414947 214.73
6.6497498 -4.6096578 -1.7198455 214.73
31.665276 -21.950615 6.3301578 214.73
6.672689 -4.6255598 -1.5297266 214.73
6.5270061 -4.5516095 -1.3073398 214.89
6.9205327 -4.826035 -1.1857548 214.89
10.390683 -7.245945 -1.4813859 214.89
11.546576 -8.0520077 -1.3133062 214.89
13.754844 -9.5919428 -1.1726063 214.89
3.0857708 -2.1518629 -1.6749415 214.89
14.437145 -10.067746 -0.82080001 214.89
4.0583858 -2.8301163 -2.0666378 214.89
14.468622 -10.089697 -0.40953127 214.89
4.3414187 -3.0274892 -2.0667651 214.89
31.491104 -21.960329 0 214.89
4.5877094 -3.1992402 -2.0357039 214.89
31.438339 -21.923532 0.88985544 214.89
4.8412609 -3.3760545 -1.9943289 214.89
31.440531 -21.92506 1.7874993 214.89
5.1647758 -3.6016576 -1.9647818 214.89
31.489674 -21.95933 2.6845081 214.89
5.6171069 -3.9170909 -1.9636406 214.89
31.513384 -21.975864 3.5843282 214.89
6.0751271 -4.2364912 -1.9388931 214.89
31.468599 -21.944635 4.4864368 214.89
6.610301 -4.609695 -1.9094918 214.89
31.478676 -21.951662 5.3935142 214.89
6.6705489 -4.6517086 -1.7285779 214.89
31.49054 -21.959934 6.3074608 214.89
6.8628755 -4.7858276 -1.5763849 214.89
6.7783599 -4.7603769 -1.3608396 215.08
10.103896 -7.0958691 -1.7352102 215.08
10.416991 -7.3157535 -1.4885874 215.08
3.071142 -2.1568336 -1.6708741 215.08
14.354632 -10.08112 -0.81800497 215.08
4.0565295 -2.8488619 -2.070492 215.08
14.508716 -10.189332 -0.41162023 215.08
4.3344045 -3.0440106 -2.0682201 215.08
15.060921 -10.57714 0 215.08
4.5709229 -3.2101154 -2.0329678 215.08
31.262381 -21.955271 0.88693088 215.08
4.8408933 -3.3997128 -1.9988105 215.08
31.245031 -21.943087 1.7805117 215.08
5.1621785 -3.6253483 -1.9683564 215.08
31.279531 -21.967316 2.6727891 215.08
5.5946469 -3.9290669 -1.9603329 215.08
31.321373 -21.9967 3.570766 215.08
6.0562949 -4.2532778 -1.9373736 215.08
31.262354 -21.955252 4.4673882 215.08
6.5854225 -4.6248794 -1.906725 215.08
31.277668 -21.966005 5.3715248 215.08
6.5366173 -4.5906038 -1.6978068 215.08
31.296415 -21.979172 6.2831426 215.08
6.7906733 -4.7690248 -1.5634243 215.08
6.6505675 -4.7018971 -1.3381428 215.25999
10.042741 -7.1001363 -1.7285299 215.25999
10.35665 -7.3220677 -1.4832444 215.25999
13.707277 -9.6909332 -1.173862 215.25999
14.486022 -10.2415 -0.82732165 215.25999
2.9776537 -2.1051769 -1.5231915 215.25999
14.277452 -10.094042 -0.4059568 215.25999
4.3217773 -3.0554616 -2.0667651 215.25999
31.088974 -21.979652 0 215.25999
4.5608158 -3.2244596 -2.0329678 215.25999
31.04958 -21.951799 0.88284576 215.25999
4.8317356 -3.415998 -1.9994507 215.25999
31.056856 -21.956945 1.7737106 215.25999
5.1632352 -3.6503654 -1.9731224 215.25999
31.083296 -21.975637 2.661907 215.25999
5.6089625 -3.9654911 -1.9697045 215.25999
31.123659 -22.004173 3.5560892 215.25999
