# .PCD v0.7 - Point Cloud Data file format
VERSION 0.7
FIELDS x y z intensity
SIZE 4 4 4 4
TYPE F F F F
COUNT 1 1 1 1
WIDTH 1208
HEIGHT 1
VIEWPOINT 0 0 0 1 0 0 0
POINTS 1208
DATA ascii
5.2244773 0.44605869 -1.9084724 175.12
5.6070261 0.47872019 -1.9014949 175.12
6.0017223 0.51241875 -1.8795897 175.12
6.4726582 0.55262661 -1.8627572 175.12
7.1366692 0.60931897 -1.8750738 175.12
7.5041699 0.64069569 -1.7845287 175.12
7.7383389 0.6606887 -1.6508188 175.12
7.6021018 0.64905697 -1.4375209 175.12
10.080247 0.83051842 -1.6617353 175.28999
10.579825 0.87167901 -1.4919356 175.28999
10.373917 0.85471404 -1.2172593 175.28999
12.089416 0.99605519 -0.84823871 175.28999
4.4867492 0.36966634 -2.0043981 175.28999
12.23321 1.0079025 -0.57241714 175.28999
4.6937609 0.38672215 -1.9671987 175.28999
12.261139 1.0102036 -0.28563204 175.28999
4.9351368 0.40660927 -1.9336365 175.28999
12.573397 1.0359308 0 175.28999
5.2182856 0.42993811 -1.9057362 175.28999
5.6103106 0.4622373 -1.9021351 175.28999
12.263076 1.0103632 0.57381463 175.28999
5.9994106 0.49429554 -1.8783982 175.28999
6.4570251 0.53199869 -1.8577958 175.28999
6.5426111 0.53905016 -1.7185644 175.28999
7.5564661 0.62258238 -1.7965177 175.28999
7.6037869 0.62648118 -1.6217111 175.28999
7.5256429 0.62004286 -1.4227087 175.28999
10.106415 0.80071682 -1.6656262 175.47
10.596332 0.83953226 -1.4938841 175.47
10.663688 0.84486872 -1.2509431 175.47
10.576781 0.83798325 -0.98985648 175.47
11.802106 0.93506402 -0.82786983 175.47
4.4787817 0.35484746 -2.0003309 175.47
12.248265 0.97041255 -0.57297617 175.47
4.6949525 0.37197438 -1.9671987 175.47
12.218409 0.96804702 -0.28456435 175.47
4.9345326 0.39095595 -1.9329091 175.47
5.2158637 0.41324544 -1.9043682 175.47
85.666389 6.7872257 1.9951534 175.47
5.6060681 0.44416079 -1.9002144 175.47
85.684082 6.7886276 4.0083175 175.47
6.01616 0.47665176 -1.8831642 175.47
6.4797463 0.513381 -1.8638598 175.47
22.99378 1.8217643 2.1519346 175.47
7.1556878 0.56693494 -1.8791257 175.47
7.5409245 0.59745663 -1.7923677 175.47
7.5959663 0.60181755 -1.6196321 175.47
7.5922098 0.60151994 -1.4349288 175.47
10.108746 0.77072698 -1.6656262 175.64
10.600751 0.80823922 -1.4941624 175.64
10.933544 0.83361256 -1.2823037 175.64
11.76902 0.89731222 -0.82535857 175.64
4.483458 0.3418349 -2.0019577 175.64
12.348701 0.94150913 -0.57754135 175.64
4.6886749 0.35748136 -1.9641154 175.64
12.330879 0.94015038 -0.28711754 175.64
4.9375286 0.37645483 -1.9336365 175.64
12.045041 0.91835707 0 175.64
5.2076969 0.39705348 -1.9009479 175.64
23.250237 1.7726812 0.54136854 175.64
5.5846901 0.42579678 -1.8925316 175.64
23.24719 1.772449 1.0872571 175.64
6.0365844 0.46025079 -1.8891217 175.64
23.213776 1.7699014 1.6279765 175.64
6.5234141 0.49736843 -1.8759879 175.64
23.255224 1.7730616 2.1759007 175.64
7.5019135 0.57197273 -1.7826842 175.64
7.6679416 0.58463132 -1.6346017 175.64
7.6057196 0.57988727 -1.4371506 175.64
10.118861 0.74130714 -1.6669232 175.81
10.595201 0.77620381 -1.493049 175.81
10.991442 0.80523235 -1.2888081 175.81
11.536848 0.8451888 -1.0792185 175.81
11.636325 0.85247642 -0.81587172 175.81
4.4899192 0.32893121 -2.0043981 175.81
11.735761 0.85976112 -0.54875278 175.81
4.6952367 0.34397274 -1.9664279 175.81
12.243879 0.89698583 -0.28502855 175.81
4.9330497 0.36139491 -1.9314542 175.81
12.285077 0.90000397 0 175.81
5.2144752 0.38201213 -1.9030001 175.81
12.357544 0.9053129 0.28767458 175.81
5.6029363 0.41047075 -1.8982937 175.81
12.317568 0.90238422 0.57595748 175.81
6.0398278 0.44247741 -1.8897173 175.81
85.821877 6.2873054 6.017333 175.81
6.5363655 0.4788537 -1.8792955 175.81
6.6031928 0.48374951 -1.7332529 175.81
7.6025643 0.55696338 -1.8062012 175.81
7.7242723 0.5658797 -1.6462448 175.81
7.7779412 0.56981152 -1.469367 175.81
10.105391 0.70841014 -1.6643292 175.99001
10.579806 0.74166775 -1.490544 175.99001
10.958248 0.7681973 -1.2846267 175.99001
11.438136 0.80183852 -1.0697435 175.99001
11.857872 0.83126295 -0.83121812 175.99001
4.4799948 0.3140575 -1.9995173 175.99001
11.658687 0.81729954 -0.54502606 175.99001
4.6797256 0.32805905 -1.9594903 175.99001
12.035213 0.84369487 -0.28010786 175.99001
4.9341607 0.34589553 -1.9314542 175.99001
12.385604 0.86825806 0 175.99001
5.2100253 0.36523426 -1.9009479 175.99001
5.6155386 0.39366162 -1.9021351 175.99001
6.0354743 0.42310002 -1.8879302 175.99001
6.5282483 0.45764458 -1.8765391 175.99001
6.5467782 0.45894355 -1.7180579 175.99001
7.5110917 0.52654403 -1.7840675 175.99001
7.8012595 0.54688549 -1.4734404 175.99001
10.148799 0.68119931 -1.6711383 176.16
10.589865 0.71080416 -1.4916573 176.16
10.970389 0.73634541 -1.2857882 176.16
11.200052 0.7517606 -1.0472636 176.16
11.635344 0.78097785 -0.81545317 176.16
4.4827299 0.30088609 -2.0003309 176.16
12.055742 0.80919552 -0.56347311 176.16
4.6751542 0.31380183 -1.9571778 176.16
12.141401 0.8149451 -0.28252178 176.16
4.9277301 0.330755 -1.9285443 176.16
5.2148366 0.35002592 -1.9023161 176.16
5.5996675 0.37585625 -1.896373 176.16
6.0481324 0.40595776 -1.8915046 176.16
6.5199866 0.43762913 -1.8737828 176.16
6.6002336 0.4430154 -1.7317334 176.16
7.6097083 0.51077253 -1.8071235 176.16
8.5532398 0.57410347 -1.8221381 176.16
9.4049911 0.63127398 -1.7759789 176.16
10.160509 0.65348923 -1.6727595 176.32001
10.577973 0.6803391 -1.4897089 176.32001
11.000156 0.70749241 -1.2890404 176.32001
11.259738 0.72418785 -1.0526514 176.32001
11.661371 0.75001949 -0.81712735 176.32001
3.3111556 0.21296221 -1.4772675 176.32001
12.28125 0.78988802 -0.57390779 176.32001
4.6815376 0.30110049 -1.9594903 176.32001
12.31922 0.79233009 -0.28660688 176.32001
4.926775 0.31687334 -1.9278167 176.32001
12.500173 0.80396837 0 176.32001
5.2101669 0.33510014 -1.9002639 176.32001
12.291285 0.79053342 0.28595698 176.32001
5.6082587 0.36070403 -1.898934 176.32001
6.0397162 0.3884539 -1.8885258 176.32001
6.5288572 0.4199138 -1.8759879 176.32001
6.5512438 0.42135361 -1.7185644 176.32001
6.4419584 0.41432473 -1.5295302 176.32001
8.6211863 0.55448526 -1.8362761 176.32001
9.4263306 0.60626936 -1.7796819 176.32001
10.164482 0.62168634 -1.6730837 176.5
10.572151 0.64662045 -1.4885955 176.5
11.671636 0.71386778 -0.81768537 176.5
11.856934 0.72520113 -0.5539701 176.5
4.6806183 0.28627887 -1.9587194 176.5
12.221862 0.74752104 -0.28428581 176.5
4.9258866 0.30128014 -1.9270893 176.5
12.36689 0.75639141 0 176.5
5.2074423 0.31850082 -1.8988959 176.5
96.258133 5.8873997 2.239006 176.5
5.5923433 0.34204236 -1.8931719 176.5
6.0409069 0.36947769 -1.8885258 176.5
6.4399543 0.39388448 -1.850078 176.5
6.4984617 0.39746293 -1.7043823 176.5
6.4296308 0.39325306 -1.5263023 176.5
7.619226 0.46601182 -1.6225429 176.5
9.4242659 0.5764128 -1.7789413 176.5
10.166282 0.59152502 -1.6730837 176.67
10.538434 0.61317867 -1.4835852 176.67
11.595946 0.67471004 -1.0836773 176.67
11.902754 0.69256169 -0.83372939 176.67
3.345227 0.19464201 -1.49191 176.67
12.152218 0.70707667 -0.56766564 176.67
4.6832895 0.27249715 -1.9594903 176.67
12.074319 0.70254415 -0.28080419 176.67
4.9267592 0.28666344 -1.9270893 176.67
5.2008595 0.30261198 -1.8961596 176.67
12.259955 0.71334541 0.28512141 176.67
5.5857673 0.32500783 -1.8906109 176.67
12.231996 0.71171862 0.5713923 176.67
6.0400705 0.35144147 -1.8879302 176.67
6.4314981 0.37421668 -1.8473215 176.67
6.4667764 0.37626934 -1.6957717 176.67
6.4346552 0.37440035 -1.5272245 176.67
7.6225281 0.44351673 -1.6229587 176.67
9.4357452 0.54901874 -1.7807928 176.67
10.191639 0.56266397 -1.6769747 176.84
10.532296 0.58147115 -1.4824718 176.84
11.593921 0.6400817 -1.0833057 176.84
12.295893 0.67883646 -0.5742805 176.84
4.6711783 0.25788826 -1.9540944 176.84
12.186153 0.67277795 -0.28335738 176.84
4.9257278 0.27194151 -1.9263618 176.84
12.393127 0.68420464 0 176.84
5.2111173 0.2876974 -1.8995799 176.84
97.109909 5.3612819 2.258039 176.84
5.5829234 0.30822423 -1.8893305 176.84
6.0258365 0.33267674 -1.8831642 176.84
6.3250828 0.34919766 -1.8164501 176.84
6.4272952 0.35484064 -1.6851351 176.84
6.6164513 0.36528364 -1.5701085 176.84
8.6453972 0.4772985 -1.8404343 176.84
9.4275198 0.52047825 -1.7789413 176.84
10.191385 0.5305407 -1.6766504 177.02
10.532094 0.5482772 -1.4821935 177.02
10.954416 0.57026237 -1.2827684 177.02
11.570022 0.60230941 -1.0808905 177.02
12.016346 0.62554407 -0.84140259 177.02
4.4849167 0.23347472 -1.9995173 177.02
12.377769 0.64435893 -0.57800716 177.02
4.6811805 0.24369179 -1.9579486 177.02
12.284052 0.63948023 -0.28558561 177.02
4.9284182 0.25656241 -1.9270893 177.02
12.345284 0.64266783 0 177.02
5.2213798 0.27181333 -1.9030001 177.02
5.5744033 0.29019094 -1.8861293 177.02
6.0115986 0.31295037 -1.8783982 177.02
6.3376679 0.32992479 -1.8197578 177.02
6.3820057 0.33223292 -1.6729791 177.02
6.6331139 0.34530506 -1.5737975 177.02
8.6488075 0.45023757 -1.8408501 177.02
9.4408855 0.49147135 -1.7811631 177.02
10.184942 0.50169057 -1.6753534 177.17999
10.559299 0.52013069 -1.4858121 177.17999
10.961919 0.53996289 -1.2834653 177.17999
11.527902 0.56784213 -1.0768033 177.17999
11.998119 0.59100413 -0.84000748 177.17999
4.4800763 0.22067989 -1.9970769 177.17999
12.265782 0.60418868 -0.57269663 177.17999
4.6726265 0.23016456 -1.9540944 177.17999
12.25184 0.60350192 -0.28479645 177.17999
4.9272547 0.24270704 -1.9263618 177.17999
12.357018 0.60868281 0 177.17999
5.2127328 0.25676912 -1.8995799 177.17999
5.588439 0.27527571 -1.8906109 177.17999
12.217893 0.60182977 0.57046062 177.17999
6.0200768 0.29653734 -1.8807812 177.17999
6.3846493 0.31449547 -1.8329884 177.17999
6.2515016 0.30793688 -1.6385369 177.17999
6.3075008 0.31069529 -1.4963295 177.17999
8.6519852 0.42618006 -1.8412659 177.17999
9.4500732 0.46549231 -1.7826444 177.17999
10.154925 0.46823677 -1.6701655 177.36
10.560882 0.48695514 -1.4858121 177.36
10.963561 0.50552243 -1.2834653 177.36
11.517694 0.53107309 -1.0756886 177.36
12.117504 0.55873001 -0.84823871 177.36
4.4843979 0.20677257 -1.9987038 177.36
12.387362 0.57117295 -0.57828665 177.36
4.6770139 0.21565396 -1.955636 177.36
12.393489 0.57145542 -0.28804597 177.36
4.92241 0.226969 -1.9241794 177.36
12.362864 0.57004339 0 177.36
5.2078815 0.24013191 -1.8975278 177.36
91.016747 4.1967211 2.1153853 177.36
5.5854907 0.25754321 -1.8893305 177.36
6.0247931 0.27779916 -1.8819727 177.36
6.3836851 0.29434744 -1.8324372 177.36
6.3413444 0.29239514 -1.661836 177.36
6.2928934 0.29016107 -1.4926406 177.36
7.6527214 0.35286182 -1.6283643 177.36
9.422039 0.43444386 -1.7770898 177.36
10.171889 0.44233561 -1.6727595 177.50999
10.57795 0.45999354 -1.4880388 177.50999
10.956908 0.47647297 -1.282536 177.50999
11.499149 0.50005293 -1.0738307 177.50999
12.087033 0.52561772 -0.84600651 177.50999
4.4812732 0.19487299 -1.9970769 177.50999
12.394803 0.53900135 -0.57856613 177.50999
4.6664996 0.20292778 -1.9510109 177.50999
12.406928 0.53952867 -0.28832448 177.50999
4.9118199 0.21359578 -1.9198145 177.50999
5.2141252 0.22674185 -1.8995799 177.50999
5.5766811 0.24250798 -1.8861293 177.50999
12.131338 0.52754432 0.56626815 177.50999
6.0140553 0.26152769 -1.8783982 177.50999
6.3786716 0.27738342 -1.8307834 177.50999
6.3807478 0.27747369 -1.6719661 177.50999
7.6516643 0.33274087 -1.6279485 177.50999
9.3976173 0.40866554 -1.7722758 177.50999
10.194992 0.40947318 -1.6763262 177.7
10.561606 0.42419791 -1.4855337 177.7
10.960413 0.44021565 -1.2827684 177.7
11.468908 0.46063894 -1.0708582 177.7
12.092697 0.48569289 -0.84628552 177.7
4.4745922 0.17971818 -1.9938231 177.7
12.426465 0.49909842 -0.57996368 177.7
4.6616149 0.1872298 -1.9486984 177.7
12.578466 0.50520337 -0.29227033 177.7
4.916224 0.19745596 -1.9212694 177.7
12.218149 0.49073157 0 177.7
5.2110925 0.2092991 -1.8982118 177.7
12.20287 0.49011791 0.28354305 177.7
5.5698814 0.22370955 -1.8835684 177.7
6.0244279 0.24196601 -1.8813769 177.7
6.3795567 0.25622946 -1.8307834 177.7
6.5362921 0.2625246 -1.7124863 177.7
6.5822978 0.26437238 -1.5608861 177.7
9.3949938 0.37734193 -1.7715353 177.7
10.186301 0.37885553 -1.6747049 177.87
10.560839 0.39278558 -1.4852554 177.87
10.963655 0.40776739 -1.2830006 177.87
11.446345 0.42571989 -1.0686288 177.87
12.062185 0.44862461 -0.84405333 177.87
4.47328 0.16637312 -1.9930096 177.87
12.493774 0.46467656 -0.58303815 177.87
4.6658387 0.17353489 -1.9502401 177.87
12.470016 0.46379289 -0.28971714 177.87
4.9149265 0.18279913 -1.920542 177.87
54.468342 2.0258219 0 177.87
5.2135687 0.19390643 -1.8988959 177.87
5.5970292 0.20816833 -1.8925316 177.87
6.0041323 0.22330958 -1.8748237 177.87
6.4206338 0.23880038 -1.8423601 177.87
6.5525103 0.2437052 -1.7165383 177.87
6.608335 0.24578148 -1.5668807 177.87
9.354826 0.34793076 -1.7637589 177.87
10.140103 0.34524077 -1.6669232 178.05
10.560041 0.35953844 -1.484977 178.05
10.947015 0.37271374 -1.2809099 178.05
11.441655 0.3895548 -1.0680715 178.05
11.991752 0.40828398 -0.83903086 178.05
4.4756064 0.15238127 -1.9938231 178.05
12.413309 0.42263678 -0.57921833 178.05
4.6663609 0.1588759 -1.9502401 178.05
12.299557 0.41876385 -0.28572488 178.05
4.9192004 0.16748434 -1.921997 178.05
12.216921 0.41595033 0 178.05
5.2103958 0.17739868 -1.8975278 178.05
12.173664 0.41447756 0.28280032 178.05
5.5995488 0.19064823 -1.8931719 178.05
12.165722 0.41420713 0.56766564 178.05
5.9971719 0.20418611 -1.8724407 178.05
6.4328809 0.21902072 -1.8456677 178.05
6.3695436 0.21686429 -1.6684206 178.05
7.5679545 0.25766665 -1.7942122 178.05
7.6544604 0.26061192 -1.6279485 178.05
7.9140906 0.26945156 -1.4919556 178.05
10.150947 0.31545952 -1.6685443 178.22
10.572939 0.32857373 -1.486647 178.22
10.94013 0.33998489 -1.2799807 178.22
11.43878 0.35548136 -1.0676999 178.22
11.970975 0.3720203 -0.83749622 178.22
4.4742126 0.13904448 -1.9930096 178.22
12.450452 0.38692093 -0.5808953 178.22
4.6649671 0.14497252 -1.9494693 178.22
12.578536 0.39090139 -0.29217747 178.22
4.9178138 0.1528302 -1.9212694 178.22
12.24209 0.38044572 0 178.22
5.2108989 0.16193837 -1.8975278 178.22
5.5925145 0.17379779 -1.8906109 178.22
6.0072927 0.1866878 -1.8754194 178.22
6.4853854 0.20154542 -1.8605522 178.22
6.285069 0.1953202 -1.6461344 178.22
6.430757 0.19984773 -1.5244578 178.22
10.151837 0.28533971 -1.6685443 178.39
10.560009 0.2968123 -1.4846987 178.39
10.949034 0.30774668 -1.2809099 178.39
11.439784 0.3215403 -1.0676999 178.39
11.962054 0.33621985 -0.83679867 178.39
4.4764318 0.12581997 -1.9938231 178.39
12.403616 0.34863091 -0.57865936 178.39
4.6635318 0.13107881 -1.9486984 178.39
12.529674 0.35217404 -0.29101694 178.39
4.929419 0.13855216 -1.9256344 178.39
43.204937 1.2143698 0 178.39
5.2132354 0.14652944 -1.8982118 178.39
5.5892177 0.15709725 -1.8893305 178.39
6.0249963 0.16934577 -1.8807812 178.39
6.4994073 0.18268013 -1.8644111 178.39
6.2604785 0.1759645 -1.6395499 178.39
6.3826876 0.17939948 -1.5129299 178.39
7.8494692 0.22062659 -1.6691151 178.39
7.8860803 0.22165564 -1.486401 178.39
10.146765 0.25329769 -1.6675717 178.57001
10.55099 0.26338848 -1.4833069 178.57001
10.938032 0.27305037 -1.2795161 178.57001
11.424812 0.28520206 -1.0662136 178.57001
11.971029 0.29883751 -0.83735669 178.57001
4.4822845 0.11189303 -1.9962634 178.57001
12.374692 0.30891427 -0.57726181 178.57001
4.6602306 0.11633517 -1.9471568 178.57001
4.9298301 0.12306528 -1.9256344 178.57001
12.174208 0.30390951 0 178.57001
5.2287002 0.1305261 -1.9036841 178.57001
12.196913 0.30447629 0.28326455 178.57001
5.5821071 0.13934833 -1.8867695 178.57001
12.156997 0.30347988 0.56710666 178.57001
6.0350418 0.15065511 -1.8837599 178.57001
6.473042 0.16158909 -1.8566933 178.57001
6.3325658 0.15808232 -1.6582905 178.57001
6.474659 0.16162945 -1.5346024 178.57001
7.8031869 0.19479401 -1.6591353 178.57001
9.4389362 0.23562786 -1.7789413 178.57001
10.155325 0.22513658 -1.6688685 178.73
10.555645 0.23401138 -1.4838636 178.73
10.968541 0.24316502 -1.2830006 178.73
11.36982 0.2520611 -1.0610117 178.73
11.949876 0.26492053 -0.83582205 178.73
4.4697933 0.099092245 -1.9905691 178.73
12.435427 0.27568486 -0.58005685 178.73
4.6494675 0.10307549 -1.9425317 178.73
25.163034 0.5578472 -0.58435494 178.73
4.9338794 0.10938071 -1.9270893 178.73
42.795486 0.94874644 0 178.73
5.2196498 0.11571605 -1.9002639 178.73
5.5805802 0.12371762 -1.8861293 178.73
6.0278039 0.13363227 -1.8813769 178.73
6.5138311 0.14440715 -1.86827 178.73
6.3658657 0.14112687 -1.666901 178.73
6.4711938 0.14346191 -1.5336802 178.73
7.7645841 0.17213549 -1.6508188 178.73
9.3884687 0.2081359 -1.7693135 178.73
10.144143 0.19300637 -1.6669232 178.91
10.560288 0.2009241 -1.4844203 178.91
10.977196 0.20885634 -1.2839298 178.91
11.336709 0.21569657 -1.0578533 178.91
11.918734 0.2267704 -0.83358985 178.91
4.4591217 0.084840968 -1.9856883 178.91
12.430239 0.2365025 -0.5797773 178.91
4.6737552 0.088924661 -1.9525527 178.91
25.14867 0.47848827 -0.5839836 178.91
4.9397869 0.09398628 -1.9292717 178.91
42.828247 0.81486672 0 178.91
5.2143502 0.099210232 -1.8982118 178.91
90.221352 1.7165861 2.0950527 178.91
5.597991 0.10650953 -1.8918914 178.91
12.110644 0.23042177 0.56487066 178.91
6.0377383 0.11487633 -1.8843557 178.91
6.5238638 0.12412554 -1.8710264 178.91
6.3508024 0.1208328 -1.6628491 178.91
7.7455273 0.14736937 -1.6466606 178.91
9.4008665 0.17886451 -1.7715353 178.91
10.158426 0.16667506 -1.6691928 179.06
10.564738 0.17334165 -1.484977 179.06
10.967773 0.17995448 -1.2827684 179.06
11.361128 0.18640846 -1.0600828 179.06
11.927265 0.19569741 -0.83414793 179.06
4.4648094 0.073256657 -1.9881287 179.06
12.51671 0.20536877 -0.58378351 179.06
4.6702814 0.076627955 -1.9510109 179.06
12.095112 0.19845137 -0.28085062 179.06
4.9437413 0.081114769 -1.9307266 179.06
12.094372 0.19843923 0 179.06
5.2221088 0.085682102 -1.9009479 179.06
5.6190901 0.0921956 -1.898934 179.06
6.0475631 0.099225797 -1.8873343 179.06
12.058927 0.19785765 0.84335577 179.06
6.522244 0.10701416 -1.8704751 179.06
7.6958551 0.12627026 -1.8237238 179.06
7.7165461 0.12660974 -1.6404233 179.06
9.3816509 0.15393007 -1.7678322 179.06
10.154977 0.13293593 -1.6685443 179.25
10.567235 0.13833269 -1.4852554 179.25
10.996119 0.14394706 -1.2860205 179.25
11.385577 0.14904538 -1.0623121 179.25
11.927849 0.1561441 -0.83414793 179.25
4.4668546 0.058474328 -1.9889421 179.25
12.185712 0.1595197 -0.56831783 179.25
4.6705098 0.061140321 -1.9510109 179.25
12.081709 0.15815823 -0.28052565 179.25
4.9514346 0.064817831 -1.9336365 179.25
12.076965 0.15809613 0 179.25
5.2298808 0.068462893 -1.9036841 179.25
12.087707 0.15823674 0.28066492 179.25
5.6193647 0.073561519 -1.898934 179.25
6.0478587 0.079170808 -1.8873343 179.25
6.5206409 0.085359864 -1.8699238 179.25
7.1736274 0.09390793 -1.8781128 179.25
9.3742495 0.12271564 -1.766351 179.25
10.147432 0.10272505 -1.6672474 179.42
10.56958 0.10699856 -1.4855337 179.42
10.996497 0.11132035 -1.2860205 179.42
11.403891 0.1154445 -1.0639843 179.42
11.910304 0.12057105 -0.8328923 179.42
4.4560466 0.045109697 -1.9840614 179.42
12.467811 0.12621483 -0.58145434 179.42
4.6762071 0.047338437 -1.9533235 179.42
4.9571939 0.050182939 -1.935819 179.42
5.2244234 0.05288817 -1.901632 179.42
43.326103 0.43860123 1.0059558 179.42
5.610085 0.056792326 -1.8957328 179.42
6.0537944 0.061284106 -1.8891217 179.42
6.5247102 0.066051304 -1.8710264 179.42
7.2551317 0.073445551 -1.8993859 179.42
7.4921651 0.0758451 -1.7753063 179.42
7.7289262 0.078241892 -1.6429182 179.42
9.3824329 0.094980769 -1.7678322 179.42
10.11613 0.070625052 -1.6620595 179.60001
10.583727 0.073889554 -1.4874821 179.60001
10.990833 0.076731734 -1.2853236 179.60001
11.426102 0.079770535 -1.0660279 179.60001
11.900649 0.083083555 -0.83219475 179.60001
2.9232743 0.020408636 -1.3015573 179.60001
12.162485 0.084911548 -0.56719983 179.60001
4.6652598 0.032570187 -1.9486984 179.60001
4.9573269 0.034609232 -1.935819 179.60001
12.111705 0.084557027 0 179.60001
5.2302017 0.03651429 -1.9036841 179.60001
12.050459 0.084129438 0.27978292 179.60001
5.6197095 0.03923361 -1.898934 179.60001
12.03263 0.084004968 0.56114393 179.60001
6.0482297 0.042225294 -1.8873343 179.60001
11.998408 0.083766051 0.83903086 179.60001
6.5095057 0.045445662 -1.8666161 179.60001
54.147533 0.37802726 5.0518351 179.60001
7.2359791 0.050517485 -1.8943208 179.60001
54.123844 0.37786186 6.3295159 179.60001
7.54491 0.052674264 -1.7877566 179.60001
54.110889 0.37777141 7.6049747 179.60001
7.7428279 0.054056015 -1.645829 179.60001
9.3925123 0.065573171 -1.7696837 179.60001
10.114306 0.044132266 -1.6617353 179.75
10.56804 0.046112068 -1.4852554 179.75
11.012847 0.048052914 -1.287879 179.75
11.45415 0.049978476 -1.0686288 179.75
11.821021 0.051579263 -0.8266142 179.75
12.248571 0.053444818 -0.57120597 179.75
4.665329 0.020356467 -1.9486984 179.75
12.47252 0.05442198 -0.28957787 179.75
4.9611268 0.021647135 -1.937274 179.75
12.081885 0.052717503 0 179.75
5.2302794 0.022821544 -1.9036841 179.75
12.050638 0.052581161 0.27978292 179.75
5.617898 0.024512861 -1.8982937 179.75
12.024817 0.052468497 0.56077129 179.75
6.0483193 0.02639094 -1.8873343 179.75
6.3731046 0.027808091 -1.8274757 179.75
54.212063 0.23654625 5.0577803 179.75
7.2322173 0.031556699 -1.8933078 179.75
54.138554 0.2362255 6.3311424 179.75
7.4808011 0.032641359 -1.7725396 179.75
54.078026 0.23596139 7.6002431 179.75
9.4005136 0.041017737 -1.7711649 179.75
10.144 0.010622776 -1.6665989 179.94
10.554272 0.011052411 -1.4833069 179.94
11.005 0.011524414 -1.2869498 179.94
11.440313 0.011980273 -1.0673283 179.94
11.94682 0.012510686 -0.8354035 179.94
2.9160354 0.0030536663 -1.2983034 179.94
12.298628 0.012879097 -0.57353514 179.94
4.6635256 0.0048836344 -1.9479276 179.94
12.588601 0.013182756 -0.29227033 179.94
4.9667602 0.0052011809 -1.9394565 179.94
24.953987 0.026131762 0 179.94
5.2322059 0.0054791551 -1.9043682 179.94
24.733322 0.025900682 0.57423508 179.94
5.6179485 0.0058831042 -1.8982937 179.94
6.0426459 0.0063278466 -1.8855472 179.94
42.969051 0.0449971 3.0046904 179.94
6.3500915 0.0066498024 -1.8208604 179.94
54.212547 0.056771267 5.0577803 179.94
7.2496953 0.007591866 -1.8978664 179.94
54.113213 0.056667246 6.3281221 179.94
7.4905987 0.0078441389 -1.7748452 179.94
54.100296 0.056653719 7.6033049 179.94
9.3455658 0.0097866571 -1.7607964 179.94
10.136096 -0.017690843 -1.6653019 180.10001
10.558222 -0.018427592 -1.4838636 180.10001
11.001017 -0.019200414 -1.2864851 180.10001
11.414414 -0.019921932 -1.0649132 180.10001
11.946809 -0.020851135 -0.8354035 180.10001
2.9324765 -0.0051181423 -1.3056246 180.10001
12.366542 -0.021583708 -0.57670283 180.10001
4.6524482 -0.0081200618 -1.9433025 180.10001
24.759291 -0.043213159 -0.57483852 180.10001
4.9593034 -0.0086556254 -1.9365466 180.10001
24.899961 -0.043458678 0 180.10001
5.2284417 -0.0091253612 -1.9030001 180.10001
24.735296 -0.043171279 0.57428145 180.10001
5.6198378 -0.009808477 -1.898934 180.10001
38.582012 -0.067338385 1.7992383 180.10001
6.052186 -0.010563068 -1.8885258 180.10001
38.635597 -0.067431904 2.7016683 180.10001
6.475049 -0.011301104 -1.8566933 180.10001
7.2516232 -0.012656483 -1.8983729 180.10001
7.5684357 -0.013209426 -1.7932899 180.10001
7.5845451 -0.013237542 -1.6121472 180.10001
9.3828993 -0.016376266 -1.7678322 180.10001
10.112309 -0.049418453 -1.661411 180.28
10.552171 -0.051568042 -1.4830285 180.28
10.998916 -0.053751267 -1.2862529 180.28
11.400356 -0.055713095 -1.0636127 180.28
11.980601 -0.05854873 -0.83777523 180.28
4.4543943 -0.021768451 -1.9832479 180.28
12.546215 -0.061312862 -0.58508784 180.28
4.665318 -0.022799226 -1.9486984 180.28
12.216562 -0.05970186 -0.28363591 180.28
4.9611144 -0.024244772 -1.937274 180.28
24.899702 -0.12168387 0 180.28
5.2283874 -0.025550924 -1.9030001 180.28
24.73304 -0.1208694 0.57423508 180.28
5.6159897 -0.027445123 -1.8976535 180.28
6.0578508 -0.02960448 -1.8903131 180.28
36.618145 -0.17895143 2.5606205 180.28
6.5634165 -0.032075159 -1.8820518 180.28
7.2515473 -0.035438027 -1.8983729 180.28
7.4749446 -0.036529761 -1.7711562 180.28
7.7976995 -0.038107052 -1.657472 180.28
9.3965597 -0.045920618 -1.7704244 180.28
10.118052 -0.077702582 -1.6623838 180.44
10.546044 -0.080989398 -1.4821935 180.44
10.988791 -0.084389508 -1.2850913 180.44
11.3902 -0.087472178 -1.0626837 180.44
11.998346 -0.0921425 -0.83903086 180.44
4.4470081 -0.034151241 -1.9799939 180.44
12.424131 -0.095412351 -0.57940465 180.44
4.6836901 -0.035968866 -1.956407 180.44
4.9628906 -0.038113013 -1.9380015 180.44
24.907265 -0.19127783 0 180.44
5.2376924 -0.040223379 -1.9064202 180.44
24.740602 -0.18999793 0.57442075 180.44
5.6045232 -0.043040495 -1.8938121 180.44
6.050108 -0.046462405 -1.8879302 180.44
6.5767584 -0.050506875 -1.8859107 180.44
7.2552896 -0.055717722 -1.8993859 180.44
7.5059505 -0.057642695 -1.7785342 180.44
9.3747759 -0.071994528 -1.766351 180.44
10.117757 -0.10948894 -1.6623838 180.62
10.545737 -0.11412031 -1.4821935 180.62
10.992444 -0.11895433 -1.285556 180.62
11.409781 -0.12347053 -1.0645416 180.62
11.974058 -0.12957683 -0.83735669 180.62
4.4487057 -0.048141509 -1.9808074 180.62
12.403792 -0.1342272 -0.57847297 180.62
4.6964717 -0.050822698 -1.9618028 180.62
4.9534316 -0.053603381 -1.9343641 180.62
12.333278 -0.13346411 0 180.62
5.2394195 -0.056698184 -1.9071044 180.62
24.735886 -0.2676785 0.57432789 180.62
5.611939 -0.060729392 -1.896373 180.62
32.628628 -0.35308951 1.5216942 180.62
6.0480227 -0.065448463 -1.8873343 180.62
32.586514 -0.35263377 2.2788045 180.62
6.5804124 -0.071209691 -1.8870133 180.62
7.2686219 -0.078657128 -1.9029315 180.62
7.5018401 -0.081180893 -1.7776119 180.62
7.4667416 -0.080801077 -1.5871979 180.62
9.4118443 -0.10184993 -1.7733867 180.62
10.09171 -0.140916 -1.6581687 180.8
9.7195234 -0.13571897 -1.3661232 180.8
10.992016 -0.15348747 -1.285556 180.8
11.407346 -0.15928695 -1.0643559 180.8
11.993541 -0.1674723 -0.83875185 180.8
4.4485326 -0.062117271 -1.9808074 180.8
3.3012419 -0.046097029 -1.3790433 180.8
12.457428 -0.17394982 -0.28925291 180.8
4.955102 -0.06919077 -1.9350915 180.8
24.041656 -0.33570665 0 180.8
5.2354569 -0.073105522 -1.9057362 180.8
5.6230879 -0.078518219 -1.9002144 180.8
6.0535145 -0.084528498 -1.8891217 180.8
12.063364 -0.16844727 0.84363478 180.8
6.5724669 -0.091774911 -1.8848082 180.8
30.63397 -0.42775872 2.858285 180.8
7.2799463 -0.10165384 -1.9059705 180.8
7.5501962 -0.10542748 -1.7891399 180.8
24.999851 -0.34908646 3.5138423 180.8
9.4055824 -0.13133523 -1.7722758 180.8
10.132686 -0.17155965 -1.6649777 180.97
10.953774 -0.18546177 -1.2811422 180.97
11.406823 -0.19313248 -1.0643559 180.97
12.046852 -0.203969 -0.84251869 180.97
3.0508046 -0.051654123 -1.3585004 180.97
12.117093 -0.20515828 -0.56515014 180.97
12.166977 -0.20600288 -0.28252178 180.97
4.9567375 -0.083924063 -1.935819 180.97
24.012558 -0.40656412 0 180.97
5.238975 -0.088702723 -1.9071044 180.97
28.608189 -0.48437417 0.66429293 180.97
5.6038852 -0.094881125 -1.8938121 180.97
28.576843 -0.48384342 1.332845 180.97
6.0513282 -0.10245692 -1.8885258 180.97
28.600052 -0.48423639 2.0001972 180.97
6.5375652 -0.11068955 -1.8748853 180.97
28.647472 -0.48503926 2.6730583 180.97
7.2505951 -0.12276208 -1.8983729 180.97
7.4720168 -0.12651104 -1.7706951 180.97
24.357103 -0.41239771 3.4236584 180.97
7.753643 -0.13127935 -1.6483239 180.97
9.4208717 -0.15950772 -1.7752383 180.97
10.003912 -0.19732493 -1.6439021 181.13
10.969103 -0.21636312 -1.2830006 181.13
11.40624 -0.22498554 -1.0643559 181.13
12.012325 -0.23694044 -0.84014696 181.13
3.0561287 -0.060281459 -1.3609408 181.13
12.38413 -0.24427421 -0.57763451 181.13
12.242319 -0.24147703 -0.28428581 181.13
4.9583464 -0.097802281 -1.9365466 181.13
24.00333 -0.47346038 0 181.13
5.2330699 -0.10322114 -1.9050522 181.13
26.653631 -0.52573699 0.61893904 181.13
5.5979152 -0.11041763 -1.8918914 181.13
12.104488 -0.23875834 0.56459111 181.13
6.0414743 -0.11916674 -1.8855472 181.13
12.050225 -0.237688 0.8427977 181.13
6.5391526 -0.12898333 -1.8754365 181.13
7.2134695 -0.1422841 -1.8887494 181.13
7.5728126 -0.14937206 -1.7946733 181.13
24.290512 -0.47912496 3.4144728 181.13
7.6574063 -0.15104064 -1.6279485 181.13
7.9584022 -0.15697771 -1.499732 181.13
9.9105492 -0.22490183 -1.6286627 181.3
9.7694502 -0.22169983 -1.3733602 181.3
9.8344336 -0.22317453 -1.1503565 181.3
11.407513 -0.25887266 -1.0645416 181.3
12.039494 -0.27321434 -0.84210014 181.3
3.1837997 -0.072250523 -1.417884 181.3
12.297466 -0.27906853 -0.57362831 181.3
3.2914889 -0.074694335 -1.3751891 181.3
12.279529 -0.27866149 -0.28516781 181.3
4.956172 -0.11247128 -1.935819 181.3
24.055807 -0.54590261 0 181.3
5.2346196 -0.11879013 -1.9057362 181.3
12.107619 -0.27476031 0.28117555 181.3
5.5786204 -0.1265966 -1.8854891 181.3
25.629541 -0.58161563 1.1955171 181.3
6.0563641 -0.13743812 -1.8903131 181.3
12.077392 -0.27407435 0.84475088 181.3
6.5560393 -0.14877735 -1.880398 181.3
26.332838 -0.59757572 2.4573634 181.3
7.2188187 -0.16381791 -1.8902688 181.3
26.29599 -0.59673947 3.0759027 181.3
7.5548258 -0.17144297 -1.7905232 181.3
24.287003 -0.55114919 3.4141946 181.3
7.8133879 -0.17731057 -1.6612144 181.3
9.4296217 -0.21398805 -1.7770898 181.3
9.7145224 -0.24929379 -1.5965629 181.47
9.8340855 -0.25236201 -1.3825456 181.47
10.95571 -0.28114513 -1.2816068 181.47
11.410675 -0.29282042 -1.0649132 181.47
11.988769 -0.30765542 -0.83861232 181.47
3.1853979 -0.081743591 -1.4186974 181.47
12.252646 -0.31442705 -0.57157862 181.47
3.2986324 -0.084649406 -1.3782724 181.47
12.290641 -0.31540206 -0.28544635 181.47
4.9595408 -0.12727159 -1.937274 181.47
23.788168 -0.61045128 0 181.47
5.2380018 -0.13441744 -1.9071044 181.47
24.195513 -0.62090451 0.56193334 181.47
5.5876908 -0.14339116 -1.8886902 181.47
24.199724 -0.62101263 1.1289028 181.47
6.057838 -0.15545607 -1.8909088 181.47
24.274712 -0.62293696 1.6980121 181.47
6.5574908 -0.16827814 -1.8809493 181.47
24.324327 -0.62421018 2.2700932 181.47
7.2183008 -0.18523583 -1.8902688 181.47
26.04389 -0.66833758 3.0466328 181.47
7.5367742 -0.19340849 -1.7863731 181.47
24.287241 -0.62325847 3.4144728 181.47
7.6993995 -0.19758177 -1.6370966 181.47
9.42698 -0.2419149 -1.7767195 181.47
9.6900187 -0.27912965 -1.592672 181.64999
9.7500963 -0.28086025 -1.3708551 181.64999
10.083077 -0.29045209 -1.1796265 181.64999
11.395765 -0.32826525 -1.0636127 181.64999
11.987742 -0.34531766 -0.83861232 181.64999
3.112072 -0.089646026 -1.3861585 181.64999
12.255591 -0.3530333 -0.57176501 181.64999
12.303579 -0.35441563 -0.28577131 181.64999
4.9553924 -0.14274451 -1.935819 181.64999
24.167974 -0.69618016 0 181.64999
5.2394323 -0.15092653 -1.9077884 181.64999
5.625092 -0.16203582 -1.9014949 181.64999
6.0573196 -0.17448652 -1.8909088 181.64999
6.5665388 -0.18915503 -1.8837057 181.64999
24.182909 -0.69661039 2.2570882 181.64999
7.2331553 -0.20835753 -1.8943208 181.64999
7.5808716 -0.21837381 -1.7969788 181.64999
7.7593608 -0.22351535 -1.6499872 181.64999
24.03961 -0.69248253 3.9512012 181.64999
9.4281387 -0.27158597 -1.7770898 181.64999
9.7641048 -0.31026107 -1.6049931 181.82001
9.7294245 -0.30915907 -1.3680716 181.82001
9.9868698 -0.31733957 -1.168476 181.82001
11.384789 -0.36175942 -1.0626837 181.82001
11.994641 -0.38113791 -0.8391704 181.82001
3.0515287 -0.096964404 -1.3593138 181.82001
12.360322 -0.39275762 -0.57670283 181.82001
12.364426 -0.39288804 -0.28721038 181.82001
4.9623952 -0.15768348 -1.9387289 181.82001
12.537672 -0.39839306 0 181.82001
5.2352042 -0.16635218 -1.9064202 181.82001
24.107332 -0.76602691 0.55998361 181.82001
5.6226926 -0.17866489 -1.9008547 181.82001
24.109617 -0.76609945 1.1248966 181.82001
6.0472341 -0.19215497 -1.8879302 181.82001
24.092978 -0.76557076 1.6855954 181.82001
6.5563407 -0.20833218 -1.8809493 181.82001
7.2383065 -0.23000212 -1.8958404 181.82001
7.6949534 -0.24451238 -1.8241849 181.82001
24.063251 -0.7646262 3.3835764 181.82001
7.8368759 -0.24902207 -1.6666201 181.82001
24.057175 -0.76443309 3.9544437 181.82001
7.5728712 -0.24063313 -1.4275227 181.82001
24.028887 -0.76353425 4.529561 181.82001
9.7118006 -0.33914354 -1.5965629 182
9.6848602 -0.33820277 -1.361948 182
11.375636 -0.39724597 -1.0619406 182
11.97544 -0.41819158 -0.83791476 182
3.1845055 -0.11120538 -1.4186974 182
12.339061 -0.43088949 -0.57577115 182
12.357136 -0.4315207 -0.28707111 182
4.9674611 -0.17346756 -1.9409114 182
23.42572 -0.81804419 0 182
5.217752 -0.18220791 -1.9002639 182
24.112801 -0.84203756 0.56016934 182
5.5936999 -0.1953363 -1.8912512 182
24.123064 -0.84239596 1.1256419 182
6.0427847 -0.21101868 -1.8867387 182
24.09444 -0.84139645 1.6858745 182
6.555654 -0.22892848 -1.8809493 182
24.112528 -0.84202802 2.2509573 182
7.2414155 -0.2528758 -1.8968533 182
24.182367 -0.84446692 2.8296633 182
7.6610832 -0.26753092 -1.8163458 182
24.060732 -0.84021926 3.3835764 182
7.8321447 -0.27350453 -1.6657884 182
24.062544 -0.84028256 3.9557407 182
24.040119 -0.83949947 4.5321531 182
9.7994976 -0.37132025 -1.6111537 182.17
9.7491245 -0.36941153 -1.3711334 182.17
11.366447 -0.43069476 -1.0611975 182.17
11.988102 -0.45425034 -0.83889133 182.17
3.2498896 -0.12314405 -1.4479824 182.17
12.361685 -0.46840605 -0.57688916 182.17
4.7007551 -0.17811991 -1.9648862 182.17
12.249906 -0.46417055 -0.28461075 182.17
4.963201 -0.18806444 -1.9394565 182.17
23.816908 -0.90246469 0 182.17
5.2284565 -0.19811544 -1.9043682 182.17
24.122185 -0.9140321 0.56044787 182.17
5.6158161 -0.21279319 -1.898934 182.17
24.13044 -0.91434491 1.1261078 182.17
6.0573945 -0.22952536 -1.8915046 182.17
24.103802 -0.91333556 1.6867115 182.17
6.5991321 -0.25005275 -1.8936286 182.17
24.097984 -0.91311514 2.2498426 182.17
7.2270994 -0.27384755 -1.8933078 182.17
24.163876 -0.91561186 2.8278048 182.17
7.7030396 -0.29188177 -1.8264905 182.17
24.058132 -0.91160506 3.3835764 182.17
7.7433286 -0.29340836 -1.6470764 182.17
24.057974 -0.91159904 3.9554164 182.17
7.8855014 -0.29879555 -1.4867713 182.17
24.03163 -0.91060084 4.5310421 182.17
9.6919394 -0.39435145 -1.5936446 182.33
9.8212748 -0.39961395 -1.3814322 182.33
10.934379 -0.4449046 -1.2797484 182.33
11.363211 -0.4623532 -1.0610117 182.33
12.004728 -0.48845562 -0.84014696 182.33
3.3207307 -0.13511589 -1.479708 182.33
4.6983957 -0.19117115 -1.9641154 182.33
12.274533 -0.49943361 -0.28521425 182.33
4.9775481 -0.20252949 -1.9452763 182.33
24.118044 -0.9813295 0 182.33
5.2466612 -0.21347931 -1.9112085 182.33
24.12553 -0.98163414 0.56058711 182.33
5.6189866 -0.22862871 -1.9002144 182.33
24.127792 -0.98172617 1.1261078 182.33
6.0338383 -0.24550846 -1.8843557 182.33
24.103149 -0.9807235 1.686851 182.33
6.5888033 -0.26808921 -1.8908722 182.33
24.099319 -0.98056763 2.2502143 182.33
7.2437057 -0.29473627 -1.8978664 182.33
24.173134 -0.98357105 2.8291986 182.33
7.6710825 -0.31212562 -1.8191125 182.33
24.067366 -0.97926754 3.3852465 182.33
7.6740651 -0.31224701 -1.6325226 182.33
24.059277 -0.9789384 3.9560647 182.33
7.8178673 -0.3180981 -1.4741809 182.33
24.038813 -0.97810572 4.5328937 182.33
9.6788225 -0.42427903 -1.5916992 182.50999
10.93888 -0.47951469 -1.2804453 182.50999
11.37165 -0.49848548 -1.0619406 182.50999
12.042998 -0.52791458 -0.84293723 182.50999
12.434532 -0.5450778 -0.58042949 182.50999
4.6959281 -0.20584981 -1.9633445 182.50999
12.308859 -0.53956884 -0.28604984 182.50999
4.9713039 -0.21792112 -1.9430938 182.50999
23.44948 -1.027927 0 182.50999
5.2440867 -0.2298788 -1.9105245 182.50999
24.130318 -1.057772 0.56077278 182.50999
5.6258125 -0.24661204 -1.9027754 182.50999
24.128582 -1.0576959 1.1262941 182.50999
6.0654626 -0.26588446 -1.8944833 182.50999
24.107924 -1.0567904 1.687409 182.50999
24.09811 -1.0563601 2.2504001 182.50999
7.2504754 -0.31783047 -1.8998923 182.50999
24.175879 -1.0597692 2.8298955 182.50999
7.5864615 -0.33255869 -1.7992845 182.50999
24.074064 -1.0553061 3.3866382 182.50999
7.5381913 -0.33044273 -1.6038308 182.50999
24.061998 -1.0547771 3.9570374 182.50999
7.8325377 -0.34334564 -1.4771434 182.50999
24.045439 -1.0540513 4.5347452 182.50999
9.7918615 -0.4583469 -1.6105052 182.67999
9.8008451 -0.45876741 -1.3789271 182.67999
10.945347 -0.51234037 -1.2813745 182.67999
11.368132 -0.53213048 -1.0617548 182.67999
12.02145 -0.56271166 -0.84154212 182.67999
3.4603755 -0.16197661 -1.5423454 182.67999
12.303144 -0.57589746 -0.57437366 182.67999
4.7026706 -0.22012715 -1.9664279 182.67999
12.34715 -0.57795733 -0.28697827 182.67999
4.9799399 -0.23310585 -1.9467312 182.67999
24.185518 -1.1320992 0 182.67999
5.2565231 -0.24605241 -1.9153128 182.67999
24.139057 -1.1299243 0.56105131 182.67999
5.6212707 -0.26312587 -1.9014949 182.67999
24.129328 -1.1294689 1.1264805 182.67999
6.0703683 -0.28414768 -1.8962706 182.67999
24.112654 -1.1286883 1.6879672 182.67999
6.5908837 -0.30851245 -1.8919748 182.67999
24.106804 -1.1284146 2.2515147 182.67999
7.2630296 -0.33997491 -1.9034379 182.67999
24.180565 -1.1318672 2.8308249 182.67999
7.5854411 -0.35506666 -1.7992845 182.67999
24.06885 -1.1266379 3.3863599 182.67999
7.5156822 -0.35180131 -1.5992568 182.67999
24.064676 -1.1264427 3.9580102 182.67999
7.6685328 -0.3589561 -1.4464082 182.67999
24.048096 -1.1256665 4.5358562 182.67999
9.9914236 -0.49915069 -1.6435778 182.86
9.7855082 -0.48886362 -1.3769786 182.86
10.943683 -0.5467236 -1.2813745 182.86
11.372371 -0.56813991 -1.0623121 182.86
11.973792 -0.59818572 -0.83833331 182.86
12.267353 -0.61285138 -0.57278979 182.86
4.7001123 -0.23480782 -1.965657 182.86
12.457104 -0.6223309 -0.28957787 182.86
4.9791832 -0.24874961 -1.9467312 182.86
12.070946 -0.60303932 0 182.86
5.255724 -0.26256502 -1.9153128 182.86
5.6242008 -0.28097335 -1.9027754 182.86
12.021926 -0.60059035 0.56133032 182.86
6.0751662 -0.30350265 -1.8980578 182.86
24.108988 -1.2044348 1.6879672 182.86
6.4900351 -0.32422864 -1.8633085 182.86
24.109106 -1.2044407 2.2520721 182.86
7.2522635 -0.36230797 -1.9009054 182.86
24.18284 -1.2081244 2.8315217 182.86
7.5745697 -0.37840971 -1.7969788 182.86
24.081015 -1.2030374 3.3885868 182.86
7.7353258 -0.38644075 -1.6462448 182.86
24.066933 -1.2023338 3.9589829 182.86
7.5162187 -0.37549463 -1.4178947 182.86
24.056217 -1.2017986 4.5380778 182.86
10.007728 -0.52798581 -1.6464959 183.02
9.8810167 -0.52130079 -1.3906176 183.02
10.920293 -0.57613075 -1.2788192 183.02
11.356819 -0.59916091 -1.0610117 183.02
11.986021 -0.63235623 -0.83930987 183.02
3.4429324 -0.18164158 -1.535024 183.02
4.6865382 -0.24725148 -1.9602611 183.02
12.41738 -0.65511376 -0.28869587 183.02
4.9747481 -0.26245683 -1.9452763 183.02
5.2530937 -0.27714172 -1.9146287 183.02
12.000072 -0.63309759 0.27899376 183.02
5.6158257 -0.29627869 -1.9002144 183.02
6.066669 -0.32006416 -1.8956748 183.02
24.117485 -1.2723857 1.6888043 183.02
6.5716581 -0.3467063 -1.8870133 183.02
24.113604 -1.2721809 2.2528152 183.02
7.243495 -0.38215095 -1.8988794 183.02
24.18334 -1.2758601 2.8319864 183.02
7.6687107 -0.40458441 -1.8195736 183.02
24.077562 -1.2702794 3.3885868 183.02
7.6013732 -0.40103179 -1.6179688 183.02
24.069393 -1.2698485 3.9599557 183.02
7.6780438 -0.4050768 -1.44863 183.02
24.050806 -1.2688679 4.5377073 183.02
10.073015 -0.563169 -1.6575202 183.2
9.9129467 -0.55421978 -1.3953495 183.2
10.902562 -0.60954785 -1.2769607 183.2
11.334998 -0.63372481 -1.0591538 183.2
12.06764 -0.67468584 -0.84516943 183.2
3.4660599 -0.19378284 -1.5455992 183.2
2.8615618 -0.15998614 -1.1971236 183.2
12.640847 -0.70673311 -0.2939415 183.2
4.9757595 -0.27818814 -1.9460037 183.2
5.25595 -0.29385322 -1.9159968 183.2
12.025973 -0.67235631 0.27964365 183.2
5.6129756 -0.31381404 -1.8995742 183.2
12.008177 -0.67136133 0.56086445 183.2
6.0580087 -0.33869526 -1.8932918 183.2
24.109385 -1.3479239 1.6885252 183.2
6.5091119 -0.36391583 -1.8693726 183.2
24.111477 -1.3480408 2.253001 183.2
7.2461224 -0.40512115 -1.8998923 183.2
24.185163 -1.3521606 2.8326833 183.2
7.5411019 -0.42161304 -1.789601 183.2
24.08334 -1.3464677 3.3899784 183.2
7.6157017 -0.42578384 -1.6212953 183.2
24.071198 -1.3457888 3.9609284 183.2
7.7159805 -0.43139029 -1.4560361 183.2
24.050625 -1.3446387 4.5384483 183.2
10.091002 -0.59421384 -1.6607625 183.37
10.057565 -0.59224492 -1.4159471 183.37
10.914587 -0.64271104 -1.2785869 183.37
11.339032 -0.66770476 -1.0597112 183.37
12.067577 -0.7106055 -0.84530896 183.37
12.424951 -0.73164964 -0.58042949 183.37
2.8518629 -0.16793342 -1.1932695 183.37
12.648675 -0.74482375 -0.2941736 183.37
4.9786315 -0.29316929 -1.9474586 183.37
12.057114 -0.70998937 0 183.37
5.2531791 -0.30933616 -1.9153128 183.37
12.025922 -0.70815259 0.27969009 183.37
5.6214771 -0.33102357 -1.9027754 183.37
12.01411 -0.70745701 0.5612371 183.37
6.0626945 -0.35700491 -1.8950791 183.37
24.127188 -1.4207419 1.6900599 183.37
6.5387106 -0.38503534 -1.8781929 183.37
24.129238 -1.4208626 2.2550447 183.37
6.4723063 -0.38112509 -1.6972913 183.37
24.19096 -1.4244971 2.8338447 183.37
7.6116996 -0.44821885 -1.8066623 183.37
24.083193 -1.4181513 3.3905351 183.37
7.6476045 -0.45033315 -1.6283643 183.37
24.076948 -1.4177835 3.9625497 183.37
7.5930214 -0.447119 -1.4330772 183.37
24.056339 -1.4165699 4.5402999 183.37
10.089194 -0.62415177 -1.6607625 183.53999
10.219834 -0.63223362 -1.4390498 183.53999
10.821428 -0.66945028 -1.2679011 183.53999
11.331038 -0.70097649 -1.0591538 183.53999
12.079355 -0.74726987 -0.84628552 183.53999
12.307072 -0.76135725 -0.5750258 183.53999
2.8697717 -0.17753382 -1.2009779 183.53999
4.9777398 -0.30793989 -1.9474586 183.53999
12.042977 -0.74501944 0 183.53999
5.2466106 -0.32457313 -1.9132607 183.53999
12.021772 -0.7437076 0.27964365 183.53999
5.6280346 -0.34816933 -1.9053363 183.53999
12.009963 -0.74297708 0.56114393 183.53999
6.0501752 -0.37428439 -1.8915046 183.53999
24.134813 -1.4930614 1.6908969 183.53999
6.2976823 -0.38959602 -1.8092836 183.53999
24.128891 -1.4926951 2.2554162 183.53999
24.18861 -1.4963895 2.8340771 183.53999
6.4779148 -0.40074581 -1.5378302 183.53999
24.082832 -1.4898458 3.3910918 183.53999
7.5915627 -0.46963984 -1.6167213 183.53999
24.078545 -1.4895805 3.9635224 183.53999
9.4984045 -0.58760351 -1.7930129 183.53999
24.059877 -1.4884257 4.5417809 183.53999
10.073398 -0.65494847 -1.6584929 183.72
10.5103 -0.68335479 -1.4802451 183.72
10.888652 -0.70795435 -1.2760316 183.72
11.32878 -0.73657048 -1.0591538 183.72
12.092875 -0.78625011 -0.84740162 183.72
2.8424332 -0.18480827 -1.2682048 183.72
12.33253 -0.8018319 -0.57633018 183.72
3.0957155 -0.20127609 -1.295792 183.72
4.976748 -0.32357636 -1.9474586 183.72
12.056543 -0.78388792 0 183.72
5.2436895 -0.34093228 -1.9125767 183.72
12.021372 -0.78160113 0.27969009 183.72
5.6344762 -0.36634031 -1.9078972 183.72
12.009563 -0.78083336 0.5612371 183.72
6.0680213 -0.39452839 -1.8974621 183.72
24.131994 -1.5690051 1.6910365 183.72
6.279161 -0.4082562 -1.8043221 183.72
24.116133 -1.5679739 2.254673 183.72
6.4717884 -0.42078036 -1.6977978 183.72
24.195683 -1.573146 2.8354709 183.72
7.5932832 -0.49369729 -1.8029734 183.72
24.091867 -1.5663962 3.3930402 183.72
7.6642327 -0.49831027 -1.6325226 183.72
24.085564 -1.5659863 3.9654677 183.72
7.8470759 -0.5101983 -1.4815871 183.72
24.062927 -1.5645146 4.543262 183.72
10.071529 -0.68307614 -1.6584929 183.88
10.484638 -0.7110942 -1.476905 183.88
10.920325 -0.7406435 -1.2799807 183.88
11.316745 -0.76752973 -1.0582249 183.88
12.066746 -0.81839663 -0.8457275 183.88
2.8473747 -0.19311602 -1.2706453 183.88
12.314297 -0.83518612 -0.57558483 183.88
3.1098714 -0.2109192 -1.3019587 183.88
12.290445 -0.83356851 -0.28600341 183.88
4.9758248 -0.3374728 -1.9474586 183.88
12.050317 -0.81728238 0 183.88
5.2595925 -0.35671863 -1.918733 183.88
12.021137 -0.81530333 0.27973649 183.88
5.6315408 -0.38194507 -1.907257 183.88
12.00933 -0.81450254 0.56133032 183.88
6.0707059 -0.41173032 -1.8986536 183.88
24.135481 -1.6369282 1.6915945 183.88
6.2933416 -0.42683002 -1.8087323 183.88
24.133516 -1.6367949 2.2567167 183.88
6.4570756 -0.43793488 -1.6942523 183.88
24.197142 -1.6411102 2.8361678 183.88
7.580225 -0.51410967 -1.8002067 183.88
24.093327 -1.6340692 3.3938751 183.88
7.768209 -0.52685922 -1.6549771 183.88
24.085033 -1.6335068 3.9661162 183.88
7.7456141 -0.52532673 -1.4627016 183.88
24.07023 -1.6325028 4.5454841 183.88
10.069334 -0.71471334 -1.6584929 184.06
10.496181 -0.74501067 -1.4788533 184.06
10.917944 -0.77494705 -1.2799807 184.06
11.312292 -0.80293751 -1.0580392 184.06
12.034263 -0.85418248 -0.84363478 184.06
3.0180695 -0.21422018 -1.3471118 184.06
12.233892 -0.868352 -0.57195133 184.06
4.6923232 -0.3330574 -1.9648862 184.06
12.23591 -0.86849523 -0.28479645 184.06
4.97474 -0.3531031 -1.9474586 184.06
12.03971 -0.85456908 0 184.06
5.2621956 -0.37350646 -1.920101 184.06
12.016521 -0.85292321 0.27969009 184.06
5.6340933 -0.39990348 -1.9085375 184.06
12.006711 -0.85222685 0.56133032 184.06
6.0636692 -0.43039441 -1.8968663 184.06
24.13619 -1.7131677 1.692013 184.06
6.3571711 -0.45122698 -1.8274757 184.06
24.132227 -1.7128863 2.2570882 184.06
6.3668904 -0.45191681 -1.670953 184.06
24.201773 -1.7178227 2.8373291 184.06
7.5475125 -0.53571647 -1.7928288 184.06
24.09005 -1.7098927 3.3941536 184.06
7.7235851 -0.54821396 -1.645829 184.06
24.083721 -1.7094434 3.9667647 184.06
24.066944 -1.7082525 4.5458541 184.06
10.049456 -0.74327636 -1.6555747 184.23
10.4959 -0.7762962 -1.4791317 184.23
10.935408 -0.80880296 -1.2823037 184.23
11.305888 -0.83620441 -1.0576676 184.23
11.999841 -0.88753045 -0.84140259 184.23
3.0775504 -0.22762133 -1.3739563 184.23
12.299004 -0.90965706 -0.57511896 184.23
4.6802716 -0.34616157 -1.9602611 184.23
12.245244 -0.90568089 -0.28507498 184.23
4.9718127 -0.36772448 -1.9467312 184.23
12.043105 -0.89073032 0 184.23
5.2591896 -0.38897941 -1.919417 184.23
12.015932 -0.88872063 0.27973649 184.23
5.627213 -0.41619909 -1.9066168 184.23
12.008115 -0.88814241 0.56151664 184.23
6.0604615 -0.44824296 -1.8962706 184.23
24.140949 -1.7855093 1.6927106 184.23
6.4689245 -0.47845364 -1.8600008 184.23
24.132996 -1.7849211 2.2576456 184.23
7.2048674 -0.53288531 -1.8912818 184.23
24.210438 -1.7906488 2.8389554 184.23
7.5614166 -0.55925637 -1.7965177 184.23
24.100672 -1.7825303 3.3963804 184.23
7.7024145 -0.56968486 -1.6416707 184.23
24.096256 -1.7822038 3.9696829 184.23
7.6187763 -0.5634988 -1.4393724 184.23
24.07353 -1.7805228 4.5480762 184.23
10.06478 -0.77620971 -1.6584929 184.41
10.487486 -0.80880928 -1.4782966 184.41
10.932813 -0.84315354 -1.2823037 184.41
11.297249 -0.87125933 -1.0571102 184.41
12.018874 -0.92691213 -0.84293723 184.41
3.2662749 -0.25189963 -1.4585576 184.41
12.314012 -0.94967353 -0.57595748 184.41
4.6810012 -0.36100525 -1.9610319 184.41
12.336035 -0.95137197 -0.28725678 184.41
4.9613452 -0.38262579 -1.9430938 184.41
12.030276 -0.92779148 0 184.41
5.2598157 -0.40564421 -1.920101 184.41
12.015075 -0.92661905 0.27978292 184.41
5.6107645 -0.43270987 -1.9014949 184.41
12.009249 -0.92616981 0.56170297 184.41
6.0571198 -0.4671334 -1.8956748 184.41
24.1392 -1.8616482 1.6929896 184.41
6.5440626 -0.50468713 -1.8820518 184.41
24.135212 -1.8613406 2.2583888 184.41
7.193512 -0.55477357 -1.8887494 184.41
24.208654 -1.8670046 2.8394201 184.41
7.5829067 -0.58480418 -1.8020512 184.41
24.092979 -1.8580836 3.396102 184.41
7.6303687 -0.58846456 -1.6267011 184.41
24.100376 -1.8586543 3.9713042 184.41
7.6718373 -0.59166265 -1.4497409 184.41
24.071737 -1.8564454 4.5488167 184.41
10.058639 -0.80399829 -1.6578444 184.57001
10.465444 -0.83651465 -1.4755132 184.57001
10.918534 -0.87273073 -1.2809099 184.57001
11.292787 -0.90264511 -1.0569245 184.57001
12.073915 -0.96508151 -0.84698308 184.57001
3.3147335 -0.26495036 -1.4805213 184.57001
12.357116 -0.98771816 -0.57810032 184.57001
4.6781354 -0.37392861 -1.9602611 184.57001
12.44295 -0.99457902 -0.28980997 184.57001
4.969543 -0.39722115 -1.9467312 184.57001
12.043588 -0.96265751 0 184.57001
5.2605357 -0.42048055 -1.9207851 184.57001
12.01244 -0.96016783 0.27978292 184.57001
5.5830922 -0.44626284 -1.8925316 184.57001
12.008607 -0.95986146 0.56179613 184.57001
6.0481791 -0.48343775 -1.8932918 184.57001
24.151806 -1.930481 1.6942452 184.57001
6.5426278 -0.52295959 -1.8820518 184.57001
24.135874 -1.9292076 2.2589462 184.57001
7.1919351 -0.57485944 -1.8887494 184.57001
24.209286 -1.9350754 2.840117 184.57001
7.6316819 -0.6100089 -1.8140403 184.57001
24.103491 -1.9266191 3.3983288 184.57001
7.73985 -0.61865491 -1.650403 184.57001
24.099028 -1.9262623 3.9719527 184.57001
7.6897469 -0.61465013 -1.453444 184.57001
24.074295 -1.9242854 4.5502977 184.57001
10.044408 -0.83286083 -1.6558989 184.74001
10.458968 -0.86723518 -1.4749565 184.74001
10.909958 -0.9046303 -1.280213 184.74001
11.292043 -0.93631202 -1.0571102 184.74001
