# .PCD v0.7 - Point Cloud Data file format
VERSION 0.7
FIELDS x y z intensity
SIZE 4 4 4 4
TYPE F F F F
COUNT 1 1 1 1
WIDTH 1256
HEIGHT 1
VIEWPOINT 0 0 0 1 0 0 0
POINTS 1256
DATA ascii
9.6373463 3.9938903 -1.7139381 157.49001
10.299068 4.2681203 -1.5668107 157.49001
10.696915 4.4329944 -1.3540848 157.49001
11.207067 4.6444106 -1.1317953 157.49001
11.98031 4.9648571 -0.90683419 157.49001
4.1336422 1.713056 -1.9921961 157.49001
12.991317 5.3838363 -0.65580148 157.49001
4.1206899 1.7076883 -1.8631345 157.49001
12.216499 5.0627379 0 157.49001
4.3873773 1.8182085 -1.7285697 157.49001
5.1689305 2.1420982 -1.8906109 157.49001
5.4870338 2.2739258 -1.8533766 157.49001
5.8378816 2.4193234 -1.81204 157.49001
6.3863578 2.6466219 -1.8097348 157.49001
6.4848351 2.6874328 -1.6632545 157.49001
6.62538 2.745677 -1.5244085 157.49001
6.674439 2.7660079 -1.3612382 157.49001
10.297771 4.2297239 -1.564584 157.67
10.740189 4.4114432 -1.3578017 157.67
11.186604 4.5948048 -1.1282655 157.67
11.971857 4.9173412 -0.90502048 157.67
4.1390038 1.7000613 -1.9921961 157.67
12.997079 5.3384418 -0.6552425 157.67
4.155055 1.7066543 -1.8762389 157.67
12.125476 4.9804382 -0.30433995 157.67
4.1600389 1.7087015 -1.756132 157.67
12.287845 5.0471301 0 157.67
4.2487764 1.7451496 -1.6717944 157.67
45.379906 18.63942 1.1390001 157.67
5.1826453 2.1287284 -1.8931719 157.67
45.283722 18.599913 2.2829607 157.67
5.4782562 2.2501483 -1.848015 157.67
45.322163 18.615702 3.4261589 157.67
5.8472314 2.4017017 -1.8125912 157.67
6.382113 2.6213999 -1.8061893 157.67
6.5184484 2.6773984 -1.6697102 157.67
6.4747286 2.659441 -1.4878161 157.67
7.8337989 3.190536 -1.3896971 157.84
10.297436 4.1939216 -1.5626355 157.84
10.738512 4.3735628 -1.3559432 157.84
11.207564 4.5645976 -1.1290085 157.84
4.140645 1.6863948 -1.9905691 157.84
12.182096 4.9615026 -0.61341059 157.84
4.156682 1.6929263 -1.8746972 157.84
12.169827 4.9565063 -0.30508268 157.84
4.1633649 1.6956481 -1.7554045 157.84
4.2521949 1.7318267 -1.6711104 157.84
45.357235 18.473017 1.1370504 157.84
4.286972 1.7459906 -1.5640916 157.84
45.248047 18.428547 2.2783954 157.84
5.4972854 2.238925 -1.8521851 157.84
45.373501 18.479641 3.42588 157.84
5.854332 2.3843422 -1.8125912 157.84
6.3880711 2.6017225 -1.8056828 157.84
6.4506645 2.6272154 -1.6503432 157.84
7.6693144 3.1235452 -1.7601804 157.84
7.7360301 3.150717 -1.5737928 157.84
7.7065268 3.1105101 -1.365379 158.02
10.292194 4.1541381 -1.5598521 158.02
10.724568 4.3286529 -1.3524587 158.02
11.190457 4.516695 -1.1258502 158.02
11.696404 4.7209053 -0.88200086 158.02
4.1459227 1.6733783 -1.9905691 158.02
12.16798 4.911243 -0.61191988 158.02
4.3348255 1.7496233 -1.9525527 158.02
12.068529 4.8711023 -0.30215812 158.02
4.2481408 1.7146355 -1.7888684 158.02
4.1617618 1.6797713 -1.6334882 158.02
45.413193 18.329683 1.137004 158.02
4.1044335 1.6566324 -1.4955865 158.02
45.450222 18.344629 2.2856624 158.02
5.507833 2.223073 -1.8533766 158.02
5.8849697 2.3752928 -1.8197578 158.02
6.385448 2.577296 -1.8026438 158.02
6.5834079 2.6571965 -1.6821604 158.02
7.784164 3.1418459 -1.5815692 158.02
7.7041898 3.0845759 -1.3634335 158.17999
10.2964 4.122436 -1.5587387 158.17999
10.679445 4.2757983 -1.3452574 158.17999
11.166053 4.4706244 -1.1221346 158.17999
11.692872 4.68155 -0.88074523 158.17999
4.1556683 1.6638316 -1.9930096 158.17999
11.884896 4.7584324 -0.59701318 158.17999
4.3379812 1.7368255 -1.9517819 158.17999
11.965143 4.7905612 -0.29923356 158.17999
4.1664357 1.6681427 -1.7524946 158.17999
12.180033 4.8765979 0 158.17999
4.2013311 1.6821139 -1.647169 158.17999
45.547733 18.236238 1.1390929 158.17999
4.0756226 1.6317831 -1.4834222 158.17999
5.4962955 2.200587 -1.8474191 158.17999
5.9022884 2.3631372 -1.8230655 158.17999
6.3854356 2.5565779 -1.8006178 158.17999
6.65765 2.6655662 -1.6992217 158.17999
7.7326951 3.0959888 -1.5693492 158.17999
9.7072115 3.8531594 -1.7158835 158.35001
10.292019 4.0852914 -1.5562336 158.35001
10.71978 4.2550859 -1.3487419 158.35001
11.144101 4.4235153 -1.1186047 158.35001
11.626972 4.6151853 -0.8747462 158.35001
4.1554918 1.6494719 -1.9905691 158.35001
4.2333369 1.6803715 -1.9024477 158.35001
12.285942 4.8767548 -0.30689311 158.35001
4.1817565 1.6598972 -1.7568594 158.35001
12.213037 4.8478165 0 158.35001
4.2622013 1.6918288 -1.6690583 158.35001
12.347269 4.9010983 0.30842504 158.35001
4.1121459 1.6322662 -1.4949464 158.35001
12.342759 4.8993082 0.6192801 158.35001
5.5205455 2.1913133 -1.8533766 158.35001
5.87711 2.3328471 -1.8131425 158.35001
6.4037828 2.5419035 -1.8036568 158.35001
6.669147 2.6472368 -1.7001439 158.35001
6.7694869 2.6870654 -1.5481105 158.35001
7.7838626 3.0897095 -1.5778662 158.35001
9.711256 3.82145 -1.7145866 158.52
10.298566 4.0525608 -1.5553986 158.52
10.699085 4.2101679 -1.3445605 158.52
11.144206 4.3853264 -1.1173042 158.52
11.720447 4.6120815 -0.88074523 158.52
4.1620679 1.6378042 -1.9913826 158.52
4.2537599 1.6738855 -1.9093853 158.52
12.218492 4.8080654 -0.30485058 158.52
4.2317367 1.6652193 -1.7757739 158.52
12.247839 4.8196139 0 158.52
4.2112389 1.6571532 -1.647169 158.52
4.291523 1.6887457 -1.5583295 158.52
5.5323529 2.1770213 -1.8551639 158.52
5.8983178 2.3210311 -1.8175527 158.52
6.4202986 2.5264344 -1.8061893 158.52
6.6805944 2.6288626 -1.7010663 158.52
7.7545886 3.0514872 -1.5700898 158.52
9.7262287 3.7940538 -1.715235 158.69
10.293939 4.0155087 -1.5528935 158.69
10.705977 4.176239 -1.3438636 158.69
11.170155 4.3573074 -1.1186047 158.69
11.702481 4.56496 -0.8783735 158.69
4.1652069 1.6247839 -1.9905691 158.69
4.2174444 1.6451608 -1.890885 158.69
12.286723 4.7928638 -0.30619681 158.69
4.254015 1.6594266 -1.7830486 158.69
12.306804 4.8006968 0 158.69
4.0725646 1.5886455 -1.5910777 158.69
34.768295 13.562584 0.86645895 158.69
4.3124018 1.6822023 -1.5640916 158.69
12.36417 4.8230748 0.61890739 158.69
5.5405664 2.1612906 -1.8557596 158.69
34.326782 13.390355 2.5765252 158.69
5.9123425 2.3063149 -1.8197578 158.69
6.4259639 2.5066707 -1.8056828 158.69
6.6919909 2.6104438 -1.7019885 158.69
7.7178326 3.0106089 -1.5608321 158.69
9.7160101 3.7549422 -1.7113441 158.87
10.28803 3.9760103 -1.55011 158.87
10.713486 4.1404362 -1.3431667 158.87
11.176359 4.3193226 -1.1178615 158.87
11.690711 4.5181041 -0.87642032 158.87
4.1651778 1.6097145 -1.9881287 158.87
11.840709 4.5760736 -0.59198219 158.87
4.1261935 1.5946482 -1.8477176 158.87
12.393106 4.7895584 -0.30847147 158.87
4.2366166 1.6373234 -1.7735914 158.87
12.051323 4.6574693 0 158.87
4.1423969 1.6009104 -1.6163872 158.87
34.689507 13.406439 0.86344153 158.87
4.310596 1.6659141 -1.5615307 158.87
34.815857 13.455269 1.7406363 158.87
5.5508909 2.1452503 -1.8569511 158.87
5.9159727 2.2863433 -1.8186553 158.87
6.4446354 2.4906554 -1.8087219 158.87
6.7078309 2.5923724 -1.5285667 158.87
7.8702478 3.0416112 -1.5897158 158.87
9.6478615 3.6957409 -1.6974018 159.03999
10.273889 3.935549 -1.5462132 159.03999
10.740564 4.1143155 -1.3450251 159.03999
11.174249 4.2804441 -1.1163753 159.03999
11.724559 4.4912477 -0.87795496 159.03999
3.2332358 1.2385337 -1.5415319 159.03999
11.719908 4.4894662 -0.58527416 159.03999
4.1584806 1.5929611 -1.8600512 159.03999
12.239218 4.6883945 -0.30429351 159.03999
4.241456 1.624746 -1.7735914 159.03999
12.108045 4.6381469 0 159.03999
4.1137834 1.5758393 -1.6033905 159.03999
34.816887 13.33707 0.86562335 159.03999
12.337433 4.726017 0.61611241 159.03999
5.564363 2.1315029 -1.8593341 159.03999
34.802917 13.331718 2.6061018 159.03999
5.9173441 2.2667172 -1.8170015 159.03999
6.4519968 2.4715228 -1.8087219 159.03999
6.865921 2.6300821 -1.7421057 159.03999
6.7319345 2.5787568 -1.5323092 159.03999
6.7394738 2.5816448 -1.3597569 159.03999
7.679565 2.9141259 -1.3494911 159.22
10.252871 3.8906054 -1.5412029 159.22
10.742293 4.076324 -1.3436313 159.22
11.182055 4.2431984 -1.1158179 159.22
11.841205 4.4933224 -0.88562816 159.22
3.231986 1.2264255 -1.5390915 159.22
11.894591 4.5135808 -0.59328651 159.22
4.2255802 1.6034596 -1.8878016 159.22
12.347357 4.6853895 -0.30661461 159.22
4.0079112 1.520862 -1.6739269 159.22
12.339464 4.6823945 0 159.22
4.1292567 1.5669082 -1.6074947 159.22
12.36792 4.6931925 0.30712524 159.22
34.669521 13.155869 1.72927 159.22
5.5692468 2.1133342 -1.8587384 159.22
34.486485 13.086412 2.5793154 159.22
5.928031 2.2494802 -1.818104 159.22
34.542236 13.107569 3.4468482 159.22
6.4579206 2.4505548 -1.8082154 159.22
7.8721428 2.9872026 -1.5863831 159.22
9.7422991 3.6638303 -1.7100472 159.39
10.295883 3.8720191 -1.5459348 159.39
10.722732 4.032546 -1.3396821 159.39
11.179685 4.2043943 -1.1143316 159.39
11.92358 4.4841542 -0.89079016 159.39
3.2783647 1.2329093 -1.5594283 159.39
11.870531 4.4642043 -0.59142321 159.39
4.2424107 1.5954623 -1.8931975 159.39
12.157211 4.5720172 -0.30155465 159.39
4.1763201 1.5706074 -1.7423099 159.39
12.312119 4.6302738 0 159.39
4.316834 1.6234511 -1.6786349 159.39
5.2229223 1.9642079 -1.8854891 159.39
12.252004 4.607666 0.61042923 159.39
5.9400778 2.2339118 -1.8197578 159.39
34.52692 12.984694 3.4414604 159.39
6.4669743 2.4320641 -1.8087219 159.39
6.7415991 2.5353434 -1.7065996 159.39
9.7938108 3.6500709 -1.7171805 159.56
10.281345 3.8317704 -1.542038 159.56
10.717897 3.9944699 -1.3375914 159.56
11.184647 4.1684232 -1.1135886 159.56
11.912528 4.4396987 -0.88897651 159.56
11.829435 4.408731 -0.58872133 159.56
4.2402086 1.58029 -1.8901142 159.56
12.22131 4.5547791 -0.30280802 159.56
4.1949272 1.563414 -1.7481297 159.56
12.404514 4.6230578 0 159.56
4.3850298 1.6342636 -1.7032603 159.56
12.346839 4.6015625 0.30591828 159.56
4.4049144 1.6416744 -1.5884205 159.56
34.647659 12.91289 2.5855935 159.56
5.9322681 2.2109063 -1.8153477 159.56
6.4669099 2.4101627 -1.8066958 159.56
6.6889133 2.4929016 -1.6913828 159.56
8.7811003 3.2726421 -1.7656103 159.56
9.8002634 3.6213391 -1.716532 159.72
10.292006 3.8030446 -1.542038 159.72
9.7116356 3.5885899 -1.2107549 159.72
11.192507 4.1357932 -1.113217 159.72
11.868736 4.3856697 -0.88479114 159.72
4.1714611 1.5414151 -1.9799939 159.72
12.268969 4.5335612 -0.60996342 159.72
4.1753616 1.5428566 -1.8592803 159.72
12.106446 4.4735069 -0.29965135 159.72
4.0821934 1.5084294 -1.6993886 159.72
12.235402 4.5211577 0 159.72
4.2873292 1.5842302 -1.663586 159.72
4.2904024 1.5853657 -1.5455248 159.72
12.270844 4.5342541 0.61005658 159.72
5.5624046 2.0553889 -1.8503979 159.72
34.86137 12.881781 2.5988472 159.72
5.945632 2.1969969 -1.8175527 159.72
6.4790597 2.3941061 -1.8082154 159.72
6.9222078 2.5578558 -1.7485614 159.72
6.7712402 2.5020711 -1.5343883 159.72
8.7846746 3.2460642 -1.7644994 159.72
9.7201576 3.5589962 -1.7006443 159.89
10.314403 3.7765768 -1.5437081 159.89
9.7185097 3.558393 -1.2102903 159.89
11.18042 4.0936656 -1.1108018 159.89
11.885444 4.3518071 -0.88507015 159.89
4.1176825 1.5076727 -1.9523358 159.89
12.28987 4.4998865 -0.61033607 159.89
4.1106024 1.5050805 -1.8284465 159.89
12.09338 4.4279423 -0.29900146 159.89
4.2668414 1.5622867 -1.7743189 159.89
12.233738 4.4793339 0 159.89
4.3343663 1.5870106 -1.6800029 159.89
12.318687 4.5104375 0.30457205 159.89
4.2595024 1.5595996 -1.5327201 159.89
5.5720644 2.0401888 -1.8515894 159.89
5.966567 2.1846344 -1.821963 159.89
34.906322 12.780808 3.4680276 159.89
6.4915853 2.3768675 -1.8097348 159.89
6.7506747 2.4717321 -1.7033718 159.89
6.7731228 2.4799516 -1.5331408 159.89
8.7665834 3.2098489 -1.7589449 159.89
9.7721081 3.5432417 -1.7077775 160.07001
10.303873 3.7360532 -1.5403678 160.07001
9.6941586 3.5149784 -1.2058766 160.07001
11.185737 4.0558057 -1.1100587 160.07001
11.880301 4.3076458 -0.88367504 160.07001
4.1241159 1.495352 -1.9531493 160.07001
12.426028 4.5055199 -0.6163919 160.07001
4.1430697 1.5022243 -1.84078 160.07001
12.214375 4.4287767 -0.30164748 160.07001
4.3137627 1.5641154 -1.7917783 160.07001
12.479017 4.5247326 0 160.07001
4.2933931 1.5567297 -1.6622179 160.07001
4.2661624 1.5468562 -1.5333604 160.07001
5.5694718 2.0194197 -1.8486106 160.07001
12.238547 4.4375415 0.91032201 160.07001
5.9643641 2.1626024 -1.8192066 160.07001
6.5026579 2.3577809 -1.8107479 160.07001
6.7949977 2.4637797 -1.7125942 160.07001
7.9303384 2.8754396 -1.7930304 160.07001
8.7914057 3.1876519 -1.7619073 160.07001
9.7980509 3.5178597 -1.7103715 160.25
9.7507572 3.5008795 -1.4560289 160.25
9.7593718 3.5039725 -1.2126133 160.25
11.185304 4.0159345 -1.1087581 160.25
11.843075 4.2520981 -0.87990814 160.25
4.1838212 1.5021453 -1.9791805 160.25
12.400635 4.4522829 -0.61443537 160.25
4.1130304 1.4767288 -1.825363 160.25
12.205647 4.3822746 -0.30109042 160.25
4.2081904 1.5108947 -1.7459472 160.25
4.2522731 1.526722 -1.6444329 160.25
12.305384 4.4180841 0.30355078 160.25
5.2678652 1.8913568 -1.8912512 160.25
5.575789 2.0019128 -1.8486106 160.25
5.9548435 2.1380074 -1.8142451 160.25
34.744164 12.474429 3.4440613 160.25
6.5136752 2.3386483 -1.8117609 160.25
6.6305304 2.3806038 -1.6692491 160.25
7.9798393 2.8650551 -1.8021785 160.25
8.7884283 3.1553681 -1.7593153 160.25
9.7080364 3.4530582 -1.6928624 160.42
9.8221302 3.4936404 -1.2191178 160.42
11.169027 3.9727192 -1.1059713 160.42
11.834961 4.2095857 -0.8783735 160.42
4.196867 1.4927865 -1.9832479 160.42
12.43826 4.4241738 -0.61564654 160.42
4.1295652 1.4688479 -1.830759 160.42
12.295833 4.3735132 -0.30299371 160.42
4.2705789 1.5190052 -1.7699541 160.42
4.311676 1.5336231 -1.6656381 160.42
5.2680979 1.8738135 -1.8893305 160.42
5.5853014 1.9866399 -1.8498021 160.42
12.177077 4.3312731 0.9037649 160.42
5.9647837 2.121618 -1.8153477 160.42
6.5205851 2.3193116 -1.8117609 160.42
6.6375647 2.36092 -1.6692491 160.42
6.9082065 2.4571848 -1.558506 160.42
8.8033066 3.1312544 -1.7604262 160.42
9.5935268 3.3802962 -1.6711383 160.59
10.333619 3.6410692 -1.5398111 160.59
9.7481422 3.4347754 -1.2086642 160.59
11.178887 3.9389007 -1.1057856 160.59
11.836109 4.1704741 -0.87753642 160.59
3.3534398 1.1815904 -1.583019 160.59
12.441911 4.3839297 -0.61518073 160.59
4.198307 1.4792809 -1.8592803 160.59
12.418132 4.3755512 -0.30568618 160.59
4.2680383 1.5038509 -1.7670441 160.59
12.449774 4.3866997 0 160.59
4.3445683 1.5308164 -1.6765827 160.59
44.861801 15.807135 1.1043231 160.59
5.2772088 1.8594339 -1.8906109 160.59
44.698925 15.749746 2.210104 160.59
5.6091785 1.9764041 -1.8557596 160.59
44.736351 15.762934 3.3167808 160.59
5.9783053 2.1064665 -1.8175527 160.59
44.800064 15.785383 4.4315028 160.59
6.5347376 2.3025265 -1.8137869 160.59
6.7638483 2.3832541 -1.6992217 160.59
8.8255348 3.1096928 -1.7630183 160.59
9.6109676 3.3544183 -1.6724353 160.75999
9.7777929 3.4126434 -1.4554722 160.75999
9.8276844 3.4300568 -1.2172593 160.75999
11.173604 3.8998091 -1.1041136 160.75999
11.82206 4.126133 -0.87558323 160.75999
3.3483057 1.1686251 -1.5789516 160.75999
12.403935 4.3292193 -0.61266524 160.75999
4.2026777 1.4668177 -1.8592803 160.75999
12.257384 4.27807 -0.30141538 160.75999
4.3533931 1.5194205 -1.8005081 160.75999
12.349437 4.3101983 0 160.75999
4.3402195 1.5148226 -1.6731626 160.75999
44.789574 15.632449 1.1013986 160.75999
44.72094 15.608495 2.2088928 160.75999
4.5406837 1.5847887 -1.500693 160.75999
44.7509 15.618952 3.314409 160.75999
5.9881597 2.0899863 -1.8186553 160.75999
44.79594 15.634672 4.4264865 160.75999
6.5378871 2.2818522 -1.8127738 160.75999
7.184309 2.5074663 -1.8029734 160.75999
8.8217325 3.0789597 -1.7604262 160.75999
9.6656437 3.3413625 -1.680217 160.92999
9.7448225 3.3687341 -1.4490703 160.92999
11.158776 3.8575306 -1.1015126 160.92999
11.785223 4.07409 -0.87195593 160.92999
3.3638461 1.162864 -1.584646 160.92999
12.41295 4.2910914 -0.61247891 160.92999
4.1616621 1.4386648 -1.8392383 160.92999
12.464665 4.3089695 -0.30619681 160.92999
4.2944946 1.4845845 -1.7743189 160.92999
12.562536 4.342803 0 160.92999
4.7994132 1.6591321 -1.8482769 160.92999
44.864101 15.509286 1.1020949 160.92999
44.785934 15.482264 2.2098246 160.92999
44.817791 15.493276 3.3159437 160.92999
6.0016022 2.0747225 -1.8208604 160.92999
44.908005 15.524463 4.4329891 160.92999
6.5336566 2.258651 -1.8097348 160.92999
7.2671294 2.5122087 -1.8218793 160.92999
8.8308296 3.0527716 -1.7604262 160.92999
9.6928978 3.316731 -1.6831352 161.11
11.178376 3.8250341 -1.1022557 161.11
11.756435 4.0228353 -0.86888665 161.11
3.3761261 1.155248 -1.5887133 161.11
12.399905 4.2430186 -0.61117458 161.11
4.0893335 1.3992944 -1.8053211 161.11
12.298423 4.2082934 -0.30178675 161.11
4.1334472 1.4143894 -1.705936 161.11
12.517457 4.2832427 0 161.11
4.3387227 1.4846308 -1.6690583 161.11
45.048813 15.414872 1.1054373 161.11
4.4889407 1.5360328 -1.6031458 161.11
5.6088204 1.9192349 -1.8498021 161.11
6.0044527 2.0546129 -1.8197578 161.11
6.5388899 2.2374873 -1.8092283 161.11
7.2897162 2.4944062 -1.8255682 161.11
8.8292189 3.0211959 -1.7582043 161.11
9.744009 3.3038526 -1.4460086 161.27
9.8597078 3.343082 -1.2174916 161.27
11.168269 3.7867696 -1.1002121 161.27
11.756287 3.9861455 -0.86804956 161.27
12.417382 4.2103 -0.61145407 161.27
4.1648827 1.412166 -1.8369257 161.27
12.302552 4.1713648 -0.30160105 161.27
4.310286 1.4614673 -1.7772288 161.27
4.2752171 1.4495766 -1.6430647 161.27
4.5308957 1.5362681 -1.6165907 161.27
12.16385 4.1243362 0.5989697 161.27
5.6159663 1.9041778 -1.8503979 161.27
12.17386 4.1277299 0.89888191 161.27
6.0174494 2.0403066 -1.821963 161.27
6.5341187 2.2154911 -1.8061893 161.27
7.3187699 2.481539 -1.8311017 161.27
8.0555143 2.7313433 -1.8080001 161.27
8.8208694 2.9908483 -1.7548716 161.27
9.0949764 3.0519645 -1.5761356 161.45
9.7393198 3.2681842 -1.4437817 161.45
10.058488 3.3752861 -1.2407217 161.45
11.157456 3.7440627 -1.0979826 161.45
11.761186 3.9466536 -0.86749148 161.45
4.1970406 1.408384 -1.9710457 161.45
12.402137 4.1617351 -0.61005658 161.45
4.2112889 1.4131652 -1.8554261 161.45
12.42554 4.1695881 -0.30429351 161.45
4.0993786 1.3756119 -1.6884764 161.45
44.232052 14.842772 0 161.45
4.4080358 1.4791868 -1.6923157 161.45
12.188592 4.0900764 0.29849082 161.45
4.5339031 1.5214236 -1.6159506 161.45
5.6219211 1.8865253 -1.8503979 161.45
6.0347657 2.0250618 -1.8252705 161.45
6.552052 2.1986456 -1.8092283 161.45
7.3006997 2.4498663 -1.824646 161.45
8.073329 2.7091343 -1.8100792 161.45
8.7985458 2.9524925 -1.7485764 161.45
9.7997198 3.256134 -1.451297 161.62
9.8007708 3.2564831 -1.2077349 161.62
11.164737 3.7096856 -1.0976111 161.62
11.750123 3.9041908 -0.86581737 161.62
4.1595874 1.3820982 -1.9515225 161.62
12.310156 4.0902715 -0.60493237 161.62
4.1961985 1.3942628 -1.8469467 161.62
12.656064 4.2052064 -0.309632 161.62
4.1847682 1.3904649 -1.7219405 161.62
44.985741 14.947325 0 161.62
4.5069313 1.4975094 -1.7285697 161.62
4.5401955 1.508562 -1.6165907 161.62
5.6293054 1.8704385 -1.8509936 161.62
12.134473 4.031898 0.89413846 161.62
6.0389233 2.0065413 -1.8247193 161.62
6.5567107 2.1785855 -1.8087219 161.62
7.3227115 2.4331031 -1.8283349 161.62
8.0869007 2.6870191 -1.8113266 161.62
8.7942114 2.9220355 -1.7459843 161.62
8.744112 2.8749177 -1.5122602 161.8
10.052608 3.3051295 -1.4872037 161.8
9.7939692 3.220093 -1.2056442 161.8
11.163094 3.6702385 -1.0963106 161.8
11.747169 3.8622723 -0.86470127 161.8
4.1951513 1.3792956 -1.9661649 161.8
12.366596 4.0659299 -0.60707521 161.8
4.2180896 1.3868374 -1.8546553 161.8
12.473572 4.1011019 -0.30485058 161.8
4.1625686 1.368583 -1.7110283 161.8
12.23564 4.0228739 0 161.8
4.961525 1.6312665 -1.9009479 161.8
12.228545 4.0205412 0.29886219 161.8
4.3505163 1.4303769 -1.5474455 161.8
5.6387811 1.8539369 -1.8521851 161.8
12.169824 4.0012345 0.89581263 161.8
6.0305862 1.9827559 -1.820309 161.8
6.5745506 2.1616023 -1.8117609 161.8
7.3377142 2.4125175 -1.8301795 161.8
8.0915861 2.660378 -1.810495 161.8
8.7716064 2.8839576 -1.7396891 161.8
8.735714 2.8434634 -1.509342 161.97
9.9456072 3.237282 -1.4699463 161.97
9.9829273 3.2494295 -1.2277129 161.97
11.156892 3.6315536 -1.0946386 161.97
11.737707 3.8206081 -0.86316663 161.97
4.2113872 1.3708009 -1.9718592 161.97
12.469792 4.0589008 -0.61154723 161.97
4.2134118 1.3714598 -1.850801 161.97
12.474277 4.0603604 -0.30457205 161.97
4.255187 1.3850577 -1.7474022 161.97
4.2139754 1.3716434 -1.612967 161.97
4.3367238 1.4115978 -1.5410432 161.97
5.6297336 1.8324708 -1.8474191 161.97
12.101961 3.9391723 0.88995308 161.97
6.0474114 1.9684243 -1.8236167 161.97
6.5901341 2.1450799 -1.8142934 161.97
7.3448396 2.3907356 -1.8301795 161.97
8.0920029 2.6339362 -1.8088317 161.97
8.8380613 2.8767772 -1.7511685 161.97
8.7173243 2.8105793 -1.5048026 162.13
9.9583788 3.2107115 -1.470503 162.13
9.9654932 3.2130053 -1.2244606 162.13
11.157514 3.5973282 -1.0937096 162.13
11.706555 3.7743466 -0.86009735 162.13
4.2186766 1.3601564 -1.9734862 162.13
12.477275 4.0228367 -0.61136091 162.13
4.1135945 1.3262768 -1.8053211 162.13
12.184894 3.9285691 -0.29723743 162.13
4.2377605 1.3663095 -1.7386725 162.13
12.123458 3.9087613 0 162.13
4.287549 1.3823619 -1.6396446 162.13
4.4398327 1.4314601 -1.576256 162.13
5.638463 1.8179141 -1.8486106 162.13
6.0382466 1.9468096 -1.8192066 162.13
6.5850501 2.1231062 -1.8112544 162.13
7.3329649 2.3642437 -1.8255682 162.13
8.1011887 2.6119292 -1.8092475 162.13
8.8535423 2.8544979 -1.7526498 162.13
8.7476015 2.7900336 -1.290413 162.31
11.163068 3.5604429 -1.0931523 162.31
11.687943 3.7278507 -0.8578651 162.31
4.2211881 1.3463411 -1.9726727 162.31
12.17199 3.882237 -0.59580201 162.31
4.1669712 1.3290488 -1.8269048 162.31
12.138123 3.8714349 -0.29579836 162.31
4.0805154 1.301474 -1.672472 162.31
12.122339 3.866401 0 162.31
4.3097758 1.3745962 -1.646485 162.31
12.115264 3.8641441 0.2952413 162.31
5.6314135 1.7961304 -1.8444405 162.31
6.0278482 1.9225726 -1.8142451 162.31
6.5916872 2.1024082 -1.8112544 162.31
7.3551888 2.3459258 -1.8292571 162.31
8.1205368 2.5900323 -1.8117424 162.31
8.871829 2.8296556 -1.7545012 162.31
9.7393141 3.074532 -1.6779473 162.48
10.793807 3.4074171 -1.3236533 162.48
11.169785 3.5261068 -1.0927807 162.48
11.681828 3.6877501 -0.85660952 162.48
4.2269063 1.3343608 -1.9734862 162.48
4.2923274 1.355013 -1.8800931 162.48
12.313534 3.8871682 -0.29979062 162.48
4.2033901 1.3269371 -1.721213 162.48
4.2098875 1.3289883 -1.6068107 162.48
4.1919198 1.3233161 -1.4853429 162.48
12.038664 3.8003967 0.58872133 162.48
5.6549244 1.7851613 -1.8503979 162.48
12.028098 3.7970612 0.88200086 162.48
6.0280261 1.9029429 -1.8125912 162.48
6.6108117 2.0869181 -1.8147999 162.48
7.3639731 2.3246782 -1.8297184 162.48
8.1263199 2.5653379 -1.8113266 162.48
8.883934 2.8045034 -1.7552419 162.48
9.8081388 3.0661662 -1.688323 162.64
10.239866 3.2011304 -1.5078014 162.64
10.799488 3.3760765 -1.3231888 162.64
11.192893 3.4990604 -1.0940812 162.64
11.631145 3.6360643 -0.85214508 162.64
4.2306161 1.3225518 -1.9734862 162.64
12.161733 3.8019338 -0.59421819 162.64
4.2855258 1.3397175 -1.875468 162.64
12.120143 3.7889323 -0.2948235 162.64
4.2568669 1.3307583 -1.7415824 162.64
12.100503 3.7827923 0 162.64
4.2046137 1.3144231 -1.6033905 162.64
4.342083 1.357398 -1.5372018 162.64
12.037789 3.7631872 0.58816236 162.64
5.6653543 1.7710718 -1.8521851 162.64
6.0424914 1.8889703 -1.8153477 162.64
6.620307 2.0696037 -1.8158129 162.64
7.3611488 2.3012016 -1.8274127 162.64
8.1297178 2.5414674 -1.810495 162.64
8.8823519 2.7767518 -1.7533903 162.64
9.8422346 3.0429161 -1.6925381 162.82001
10.234735 3.1642652 -1.5055746 162.82001
11.184805 3.4579976 -1.0922234 162.82001
11.663478 3.6059885 -0.85367972 162.82001
4.2347503 1.3092545 -1.9734862 162.82001
4.2262406 1.3066236 -1.8477176 162.82001
12.298179 3.8022184 -0.29886219 162.82001
4.3090835 1.3322361 -1.7612243 162.82001
4.2087221 1.3012074 -1.6033905 162.82001
5.6654181 1.751573 -1.8503979 162.82001
6.0392122 1.8671386 -1.8125912 162.82001
6.6101398 2.0436518 -1.8112544 162.82001
7.3887939 2.2843878 -1.832485 162.82001
8.1320553 2.5141814 -1.8092475 162.82001
8.8947868 2.7499945 -1.754131 162.82001
9.842309 3.0090957 -1.690917 163
10.233261 3.1286218 -1.5039046 163
10.07202 3.0793254 -1.231662 163
11.191805 3.4216781 -1.0918518 163
11.690013 3.5739956 -0.85479581 163
4.2301064 1.2932732 -1.9694189 163
12.617161 3.8574533 -0.61527389 163
3.3973196 1.0386648 -1.4838784 163
4.341753 1.3274071 -1.772864 163
12.162284 3.7183833 0 163
4.3907185 1.3423773 -1.6711104 163
12.149446 3.7144587 0.29496276 163
12.078391 3.6927347 0.58900082 163
5.6489835 1.7270676 -1.843249 163
6.0395327 1.8464704 -1.8109374 163
6.5314155 1.9968542 -1.7879553 163
7.4015174 2.262871 -1.8338684 163
8.1530094 2.492625 -1.8121583 163
8.9202976 2.7272089 -1.7574637 163
9.8671522 2.988467 -1.6938351 163.14999
10.237626 3.1006725 -1.5033479 163.14999
10.812 3.2746334 -1.3210981 163.14999
11.187384 3.3883257 -1.0905514 163.14999
11.69551 3.5422223 -0.8545168 163.14999
3.3434155 1.0126212 -1.5553609 163.14999
3.4035597 1.0308371 -1.48542 163.14999
12.394505 3.753927 -0.30067262 163.14999
4.3006377 1.3025353 -1.7546771 163.14999
4.3222699 1.309087 -1.6437488 163.14999
4.4754915 1.3554933 -1.5800974 163.14999
5.6352134 1.7067385 -1.8372915 163.14999
12.052582 3.6503685 0.8806057 163.14999
6.0259461 1.8250798 -1.8054247 163.14999
6.458848 1.9561931 -1.7666821 163.14999
7.3962407 2.2401013 -1.8311017 163.14999
8.131422 2.4627659 -1.805921 163.14999
8.9424553 2.7084038 -1.7604262 163.14999
9.8675547 2.9529009 -1.6922139 163.34
10.24216 3.0650027 -1.5025128 163.34
10.794254 3.2302189 -1.3176135 163.34
11.192835 3.3494956 -1.089994 163.34
11.724395 3.5085671 -0.85577244 163.34
3.3520062 1.0030998 -1.5578014 163.34
12.459917 3.7286744 -0.60651624 163.34
3.3998873 1.0174284 -1.4823366 163.34
12.341757 3.6933148 -0.29909429 163.34
12.145814 3.6346781 0 163.34
4.362597 1.3055228 -1.6574296 163.34
12.154035 3.6371384 0.29454499 163.34
4.4854078 1.3422743 -1.5820181 163.34
5.6225514 1.6825686 -1.8313339 163.34
6.0835361 1.8205199 -1.8208604 163.34
6.4467635 1.9292171 -1.7616171 163.34
7.4036283 2.2155623 -1.8311017 163.34
8.1489153 2.438592 -1.8080001 163.34
8.932559 2.6731 -1.756723 163.34
9.8227787 2.9096396 -1.6831352 163.5
10.258274 3.0386393 -1.5036262 163.5
10.774662 3.1916003 -1.314129 163.5
11.202145 3.3182263 -1.089994 163.5
11.73606 3.4763794 -0.85591191 163.5
3.3670573 0.9973678 -1.5634956 163.5
12.161876 3.6025116 -0.59151638 163.5
4.3883171 1.2998787 -1.9116979 163.5
4.2656436 1.2635412 -1.7372175 163.5
12.334257 3.6535735 0 163.5
4.8617735 1.440123 -1.8455406 163.5
4.3583341 1.2909974 -1.5359213 163.5
5.6565175 1.6755368 -1.840866 163.5
12.038309 3.5659096 0.87795496 163.5
6.103343 1.8078926 -1.8252705 163.5
6.5040693 1.9265932 -1.7757992 163.5
7.4172506 2.1970897 -1.8329462 163.5
8.1800776 2.4230494 -1.8134058 163.5
8.9569492 2.6531692 -1.7600558 163.5
9.8773279 2.8920758 -1.690917 163.67999
10.254465 3.0025012 -1.5016778 163.67999
10.767478 3.1527114 -1.3120383 163.67999
11.216336 3.2841365 -1.0903655 163.67999
11.727776 3.4338861 -0.8545168 163.67999
3.3736808 0.9878118 -1.5651226 163.67999
12.370619 3.6221099 -0.60111254 163.67999
3.3314779 0.97545475 -1.4499612 163.67999
12.309727 3.6042809 -0.29779449 163.67999
4.3911719 1.2857325 -1.7866861 163.67999
4.2548332 1.2458127 -1.613651 163.67999
12.062189 3.5318019 0.2918061 163.67999
4.3514581 1.2741044 -1.5320799 163.67999
5.6874051 1.6652689 -1.8492064 163.67999
12.087747 3.5392852 0.88074523 163.67999
6.1126828 1.7897899 -1.8263731 163.67999
6.5509405 1.9181116 -1.7869422 163.67999
7.4222484 2.1732302 -1.832485 163.67999
8.1970367 2.4000876 -1.8154849 163.67999
8.9690123 2.6261215 -1.7607964 163.67999
9.8479519 2.8517776 -1.6844321 163.85001
10.282352 2.9775715 -1.5044612 163.85001
10.738624 3.109699 -1.3073922 163.85001
11.208816 3.2458575 -1.0886935 163.85001
11.670839 3.3796506 -0.84963387 163.85001
3.3625572 0.97373188 -1.5586149 163.85001
12.362121 3.5798326 -0.60018086 163.85001
3.3254941 0.96299917 -1.4461069 163.85001
12.356857 3.5783083 -0.29867649 163.85001
4.3717041 1.2659614 -1.7772288 163.85001
44.263454 12.817846 0 163.85001
4.3000307 1.2452062 -1.6293839 163.85001
5.3452897 1.5478932 -1.8803672 163.85001
12.080029 3.4981444 0.58648533 163.85001
5.6868196 1.6467936 -1.8474191 163.85001
12.046453 3.488421 0.8769784 163.85001
6.0939598 1.7646935 -1.8192066 163.85001
6.5064249 1.8841355 -1.7732667 163.85001
7.4305334 2.1517396 -1.8329462 163.85001
8.2060013 2.3763001 -1.8159007 163.85001
8.978653 2.6000452 -1.7611667 163.85001
9.8525753 2.8214588 -1.6837837 164.02
10.289237 2.9465048 -1.5041829 164.02
10.711518 3.0674324 -1.3029785 164.02
11.170537 3.1988807 -1.0840489 164.02
11.711504 3.353796 -0.85186607 164.02
12.313148 3.5260875 -0.59729272 164.02
3.3283367 0.95312798 -1.4461069 164.02
12.221334 3.4997945 -0.29514846 164.02
4.2429061 1.215031 -1.7233955 164.02
4.3687501 1.2510687 -1.6540095 164.02
5.6990223 1.6320157 -1.8498021 164.02
12.074012 3.4576066 0.87823403 164.02
6.1158028 1.7513682 -1.824168 164.02
6.5008264 1.8616264 -1.7702277 164.02
7.4069505 2.1211109 -1.8255682 164.02
8.2186575 2.3535578 -1.8171482 164.02
8.9901066 2.5744758 -1.7619073 164.02
9.823411 2.7797451 -1.6772989 164.2
10.29082 2.9120088 -1.5030695 164.2
10.726836 3.0353887 -1.3036754 164.2
11.169035 3.1605184 -1.0829341 164.2
11.73734 3.3213325 -0.85298216 164.2
3.29812 0.93327391 -1.5260758 164.2
12.283796 3.4759641 -0.5953362 164.2
4.2724643 1.2089856 -1.8546553 164.2
12.286138 3.4766264 -0.29644826 164.2
4.2072649 1.1905359 -1.7073909 164.2
12.422235 3.5151379 0 164.2
4.7451844 1.3427519 -1.7949218 164.2
12.124528 3.4308956 0.29254887 164.2
4.6381402 1.3124614 -1.6287552 164.2
12.056959 3.4117756 0.58434248 164.2
5.6967731 1.6120243 -1.8474191 164.2
12.061778 3.4131391 0.87655985 164.2
6.1194248 1.7316227 -1.8236167 164.2
6.4954724 1.8380334 -1.7671887 164.2
7.4285583 2.1020701 -1.8292571 164.2
8.2260113 2.3277266 -1.8171482 164.2
8.9943676 2.5451496 -1.7611667 164.2
9.8563223 2.7574985 -1.681514 164.37
10.297508 2.8809288 -1.5027912 164.37
10.758752 3.0099707 -1.306463 164.37
11.207129 3.1354129 -1.0857209 164.37
11.7702 3.292943 -0.85465634 164.37
3.3219891 0.92939126 -1.5358375 164.37
12.332535 3.4502673 -0.59719956 164.37
4.2333789 1.1843704 -1.8361549 164.37
12.229005 3.4213028 -0.2948235 164.37
4.296896 1.2021405 -1.7423099 164.37
12.182223 3.4082148 0 164.37
4.6658931 1.3053746 -1.7634559 164.37
4.6328907 1.2961415 -1.6255541 164.37
5.6996922 1.5946002 -1.8468235 164.37
12.060324 3.3741109 0.87572277 164.37
6.1115756 1.7098325 -1.8197578 164.37
6.4599056 1.8072847 -1.7560456 164.37
7.4291401 2.0784469 -1.8278738 164.37
8.230998 2.3027823 -1.8167324 164.37
8.9924164 2.5158038 -1.7593153 164.37
9.8306971 2.717057 -1.6756777 164.55
10.291236 2.8443432 -1.5005643 164.55
10.708799 2.9597514 -1.2992617 164.55
11.211165 3.098598 -1.0851636 164.55
11.767025 3.2522292 -0.85367972 164.55
3.2826269 0.90726876 -1.5163141 164.55
12.316354 3.4040554 -0.59589517 164.55
3.2462926 0.89722657 -1.4067937 164.55
12.320636 3.4052389 -0.29677323 164.55
4.7262273 1.3062583 -1.9147222 164.55
12.44733 3.4402554 0 164.55
4.1573248 1.1490221 -1.5698725 164.55
12.093225 3.342386 0.29129547 164.55
12.064096 3.3343351 0.58369035 164.55
5.7028337 1.5761776 -1.8462276 164.55
12.028558 3.3245127 0.87265348 164.55
6.1057987 1.6875511 -1.8164501 164.55
6.461822 1.7859505 -1.7550325 164.55
7.4281297 2.0530236 -1.8260293 164.55
8.2513905 2.2805605 -1.8196431 164.55
8.9226046 2.466074 -1.7441328 164.55
9.8577528 2.6930778 -1.67892 164.72
10.307272 2.8158839 -1.5016778 164.72
10.709869 2.9258709 -1.2983325 164.72
11.19918 3.0595474 -1.08312 164.72
11.72081 3.2020535 -0.84963387 164.72
3.2007041 0.87441283 -1.4772675 164.72
12.401561 3.3880308 -0.59952873 164.72
3.2151158 0.87835002 -1.3921477 164.72
12.376976 3.3813143 -0.29788733 164.72
4.7282853 1.2917386 -1.9139947 164.72
12.279987 3.3548176 0 164.72
4.2296076 1.1555029 -1.595866 164.72
47.407463 12.951429 1.1409962 164.72
5.7166939 1.5617658 -1.8492064 164.72
12.036444 3.2882829 0.87251395 164.72
6.1441612 1.6785473 -1.8263731 164.72
6.4838901 1.7713591 -1.7595911 164.72
7.4454522 2.0340521 -1.828796 164.72
8.9336748 2.4406252 -1.7448733 164.72
9.8576145 2.6634803 -1.677623 164.88
10.2998 2.7829566 -1.499451 164.88
10.729504 2.8990607 -1.2997264 164.88
11.194222 3.0246255 -1.0818195 164.88
11.743188 3.1729534 -0.85061044 164.88
3.1960781 0.86356503 -1.4740136 164.88
12.337685 3.3335834 -0.59598833 164.88
3.2300272 0.87273794 -1.3975437 164.88
12.382509 3.345695 -0.29779449 164.88
4.731874 1.2785298 -1.9139947 164.88
12.091043 3.266942 0.29078484 164.88
4.3625531 1.178741 -1.526958 164.88
12.096601 3.2684438 0.58434248 164.88
5.7228756 1.5462937 -1.8498021 164.88
12.035949 3.2520559 0.8718164 164.88
6.1488247 1.661383 -1.8263731 164.88
6.5243001 1.7628347 -1.7692146 164.88
7.4304371 2.0076687 -1.8237238 164.88
7.5561743 2.0416422 -1.6637094 164.88
8.9290714 2.4125924 -1.7426515 164.88
9.8335171 2.6238492 -1.672111 165.06
10.310406 2.7510958 -1.4997294 165.06
10.798058 2.8812146 -1.3069277 165.06
11.163265 2.9786618 -1.0779181 165.06
11.749243 3.1350167 -0.85033143 165.06
3.2270205 0.86105663 -1.4870292 165.06
12.392493 3.3066533 -0.59813118 165.06
4.477354 1.1946795 -1.9355941 165.06
12.373641 3.3016229 -0.29733029 165.06
4.7376671 1.2641381 -1.9147222 165.06
12.643645 3.3736675 0 165.06
4.474267 1.1938558 -1.6854752 165.06
4.8256612 1.2876172 -1.5584806 165.06
12.028757 3.2095988 0.87056077 165.06
6.1447258 1.6395795 -1.8236167 165.06
6.582149 1.7562959 -1.7833967 165.06
7.4649129 1.9918412 -1.8306406 165.06
8.2562418 2.2029893 -1.8163165 165.06
8.963192 2.3916228 -1.7478358 165.06
9.7015038 2.5596254 -1.6484414 165.22
10.318048 2.7222931 -1.4997294 165.22
10.788774 2.8464887 -1.304837 165.22
11.177316 2.9490006 -1.0784754 165.22
11.757952 3.1021943 -0.85033143 165.22
3.2877116 0.86742324 -1.5138738 165.22
12.289639 3.2424736 -0.59272754 165.22
12.348013 3.257875 -0.29649469 165.22
4.7051516 1.2413977 -1.9001726 165.22
12.432561 3.2801819 0 165.22
4.59025 1.2110823 -1.7278857 165.22
12.110216 3.1951351 0.29078484 165.22
5.0088611 1.3215278 -1.7503997 165.22
12.084876 3.1884494 0.58285183 165.22
12.041532 3.1770136 0.87083983 165.22
6.1437039 1.6209425 -1.821963 165.22
6.721724 1.7734462 -1.8198649 165.22
7.4685645 1.9704911 -1.8301795 165.22
8.9679356 2.3660822 -1.7474655 165.22
9.6469116 2.5110345 -1.6377414 165.41
10.300185 2.6810777 -1.4958324 165.41
10.788543 2.8081942 -1.3036754 165.41
11.187034 2.9119191 -1.0784754 165.41
11.793275 3.06972 -0.85214508 165.41
3.4744599 0.90438151 -1.598475 165.41
12.11665 3.1538928 -0.58387667 165.41
12.327788 3.2088509 -0.29575193 165.41
4.7020307 1.2239109 -1.8972627 165.41
12.369821 3.2197917 0 165.41
4.6378913 1.2072159 -1.7443027 165.41
4.7656722 1.2404765 -1.6639681 165.41
4.826046 1.2561914 -1.5560976 165.41
12.0269 3.1305315 0.86902612 165.41
6.1602082 1.603466 -1.8252705 165.41
6.7556543 1.7584571 -1.8274624 165.41
7.4844742 1.9481647 -1.832485 165.41
8.9795361 2.3373206 -1.7482061 165.41
9.6538868 2.4840856 -1.6377414 165.57001
10.292288 2.6483552 -1.4936057 165.57001
10.773257 2.7721157 -1.3008878 165.57001
11.195122 2.8806677 -1.0784754 165.57001
11.726445 3.017385 -0.84670407 165.57001
3.473433 0.89376485 -1.596848 165.57001
12.208607 3.1414521 -0.58788282 165.57001
3.5137539 0.90414 -1.515483 165.57001
12.301847 3.1654441 -0.29491636 165.57001
4.5773296 1.1778135 -1.8456118 165.57001
12.070796 3.1059914 0 165.57001
4.6958475 1.2083099 -1.7648239 165.57001
4.7874675 1.2318851 -1.6703705 165.57001
12.024002 3.0939507 0.8681891 165.57001
6.1702476 1.5876945 -1.8269244 165.57001
6.7624121 1.7400671 -1.827969 165.57001
7.4729228 1.9228919 -1.8283349 165.57001
7.5309539 1.937824 -1.652898 165.57001
9.0069656 2.3176234 -1.7522794 165.57001
9.6975565 2.4646673 -1.6439021 165.74001
10.290503 2.6153667 -1.492214 165.74001
10.769883 2.7372029 -1.299494 165.74001
11.1766 2.8405712 -1.0758744 165.74001
11.758551 2.988476 -0.84837824 165.74001
3.4441953 0.87535411 -1.5822055 165.74001
3.5110552 0.89234674 -1.5131705 165.74001
12.355755 3.1402576 -0.29598406 165.74001
4.5753875 1.1628505 -1.8434293 165.74001
4.6174455 1.1735396 -1.7340422 165.74001
4.7653923 1.2111409 -1.6614071 165.74001
12.011859 3.0528555 0.86665446 165.74001
6.1749315 1.56938 -1.8269244 165.74001
6.7562943 1.7171354 -1.82493 165.74001
7.474823 1.899752 -1.8274127 165.74001
9.0195169 2.2923415 -1.7533903 165.74001
9.6707954 2.4255474 -1.6380657 165.92
10.776503 2.7028716 -1.2992617 165.92
11.185468 2.805445 -1.0758744 165.92
11.837547 2.9689941 -0.85340071 165.92
3.4699669 0.87030786 -1.5927807 165.92
12.731399 3.1931822 -0.6121062 165.92
12.400469 3.1101811 -0.29681963 165.92
4.6043167 1.1548159 -1.853614 165.92
12.068205 3.0268455 0 165.92
4.4114733 1.1064487 -1.6553775 165.92
12.026166 3.0163016 0.28786027 165.92
5.3848472 1.3505821 -1.8758856 165.92
12.020224 3.0148113 0.577914 165.92
12.007844 3.0117064 0.86567783 165.92
6.1761017 1.5490378 -1.8258219 165.92
6.7729154 1.6987257 -1.827969 165.92
7.4769793 1.8753129 -1.8264905 165.92
8.242837 2.0673988 -1.8063368 165.92
9.0114231 2.2601693 -1.750428 165.92
9.7464914 2.4156237 -1.6497383 166.08
9.8483162 2.4408605 -1.4259676 166.08
10.755086 2.6655993 -1.2957772 166.08
11.181662 2.7713239 -1.0747597 166.08
11.826427 2.9311264 -0.85200554 166.08
3.502532 0.86808664 -1.6066097 166.08
12.424631 3.0793884 -0.29719102 166.08
4.6274147 1.1468837 -1.8616163 166.08
12.070786 2.9916897 0 166.08
4.4090734 1.0927688 -1.6533253 166.08
12.030661 2.9817445 0.28776744 166.08
5.3849196 1.3346279 -1.8746051 166.08
12.026656 2.980752 0.57782084 166.08
12.018145 2.9786425 0.86581737 166.08
4.7024808 1.1654885 -1.3892123 166.08
6.7532191 1.6737547 -1.8213844 166.08
7.4462967 1.8455307 -1.8177292 166.08
9.0177002 2.2349958 -1.750428 166.08
9.8234663 2.4001527 -1.661411 166.27
10.325798 2.5228868 -1.4938841 166.27
10.74457 2.6252046 -1.2934542 166.27
11.198528 2.7361195 -1.0755029 166.27
11.812825 2.88621 -0.85033143 166.27
12.383867 3.0257318 -0.59449768 166.27
4.5696602 1.1164984 -1.836882 166.27
12.063155 2.9473727 0 166.27
4.4637918 1.0906316 -1.6724786 166.27
12.03077 2.9394603 0.28753531 166.27
12.02483 2.9380088 0.57726181 166.27
4.7293682 1.1555195 -1.5191612 166.27
12.010512 2.9345107 0.86456174 166.27
6.6459613 1.6237979 -1.7909943 166.27
7.4315801 1.8157469 -1.8126569 166.27
7.4723492 1.8257079 -1.6350175 166.27
9.0040598 2.1999485 -1.7463546 166.27
9.8378038 2.3745635 -1.662708 166.42999
10.327027 2.4926479 -1.493049 166.42999
10.73448 2.5909951 -1.2913635 166.42999
11.192575 2.7015662 -1.0742023 166.42999
11.768474 2.8405716 -0.84656459 166.42999
12.293223 2.967231 -0.58974618 166.42999
4.5082254 1.0881562 -1.9371357 166.42999
4.4985099 1.085811 -1.8070555 166.42999
12.069395 2.9132054 0 166.42999
4.4503779 1.0741935 -1.6663221 166.42999
12.029214 2.9035068 0.28730321 166.42999
4.7980504 1.1581117 -1.6678095 166.42999
12.021336 2.9016051 0.57670283 166.42999
4.6713314 1.1275253 -1.4995015 166.42999
12.005085 2.8976827 0.86358517 166.42999
4.7020373 1.1349368 -1.3870071 166.42999
23.004593 5.5526481 2.2078555 166.42999
6.5996885 1.5929754 -1.7773187 166.42999
7.4271626 1.7927039 -1.8103514 166.42999
7.3709245 1.7791295 -1.6117314 166.42999
9.0044365 2.1734126 -1.7452437 166.42999
9.8567343 2.3463876 -1.6646534 166.61
10.327101 2.4583578 -1.4919356 166.61
10.730971 2.5544989 -1.2899697 166.61
11.179697 2.6613176 -1.0721587 166.61
11.761812 2.7998898 -0.84544843 166.61
12.339412 2.9373868 -0.59151638 166.61
4.5044403 1.0722784 -1.9340523 166.61
12.228897 2.9110787 -0.29185253 166.61
4.4656515 1.0630447 -1.7925059 166.61
12.066813 2.8724949 0 166.61
4.4665284 1.0632534 -1.6711104 166.61
12.026606 2.8629236 0.28702468 166.61
4.6947565 1.1175829 -1.6306759 166.61
12.020674 2.8615115 0.57623696 166.61
12.000543 2.8567193 0.86260855 166.61
6.2073998 1.4776664 -1.8296808 166.61
23.262138 5.5375328 2.2308927 166.61
6.7382975 1.6040461 -1.8132803 166.61
7.4497967 1.7734179 -1.8145014 166.61
7.4297643 1.7686492 -1.6233745 166.61
7.4185305 1.765975 -1.4367802 166.61
9.8728542 2.3211117 -1.6662747 166.77
10.326214 2.4276965 -1.4908223 166.77
10.741931 2.5254316 -1.2904342 166.77
11.173516 2.6268976 -1.0708582 166.77
11.767643 2.766577 -0.84530896 166.77
3.3153076 0.77942997 -1.5163141 166.77
12.475923 2.933094 -0.59766537 166.77
4.502028 1.0584283 -1.9317398 166.77
12.227246 2.87463 -0.29162043 166.77
4.385179 1.0309571 -1.7590419 166.77
12.070894 2.8378716 0 166.77
4.4109364 1.0370127 -1.6492212 166.77
12.028714 2.827955 0.28688541 166.77
4.7808604 1.123982 -1.6594864 166.77
12.00528 2.8224456 0.57511896 166.77
5.7651849 1.355397 -1.848015 166.77
11.957976 2.8113246 0.85898119 166.77
6.2208595 1.4625263 -1.8324372 166.77
23.422899 5.506732 2.2448266 166.77
6.7182655 1.5794666 -1.8066958 166.77
7.4035697 1.7405819 -1.8020512 166.77
7.512754 1.7662511 -1.6404233 166.77
7.4502187 1.751549 -1.4419645 166.77
9.8912325 2.2944839 -1.6682202 166.94
10.325654 2.395257 -1.4897089 166.94
10.739701 2.4913042 -1.2892728 166.94
11.167682 2.5905836 -1.0695578 166.94
11.7758 2.7316496 -0.84530896 166.94
3.2499719 0.75390077 -1.4854022 166.94
12.280225 2.8486619 -0.58788282 166.94
3.2593112 0.75606722 -1.3975437 166.94
12.200663 2.8302057 -0.29078484 166.94
4.4789591 1.0389907 -1.7954158 166.94
12.065623 2.7988803 0 166.94
12.017574 2.7877345 0.28642121 166.94
4.7878656 1.1106483 -1.660767 166.94
12.011656 2.7863615 0.5750258 166.94
4.5602942 1.0578581 -1.4607778 166.94
11.975983 2.7780864 0.8596788 166.94
6.2270446 1.4444966 -1.8329884 166.94
6.6607256 1.5450983 -1.7899812 166.94
7.3556194 1.7062939 -1.7891399 166.94
7.5293956 1.7466049 -1.6429182 166.94
7.6028056 1.763634 -1.4704779 166.94
7.3704062 1.6853409 -1.2421674 167.12
10.33892 2.3641307 -1.490544 167.12
10.726173 2.4526815 -1.2867174 167.12
11.175765 2.5554867 -1.0695578 167.12
11.757094 2.6884153 -0.84335577 167.12
3.2665734 0.7469452 -1.49191 167.12
12.52282 2.8635087 -0.59906286 167.12
3.28146 0.75034922 -1.4060229 167.12
12.14712 2.7775998 -0.28929934 167.12
4.5148916 1.0323896 -1.8085104 167.12
12.072407 2.7605155 0 167.12
4.812922 1.1005383 -1.7969738 167.12
12.01263 2.7468464 0.28609625 167.12
4.5401282 1.0381603 -1.5736951 167.12
12.01256 2.7468307 0.57465315 167.12
4.6026793 1.0524635 -1.4732885 167.12
11.961312 2.7351122 0.85800463 167.12
6.2315516 1.4249268 -1.8329884 167.12
6.7070413 1.5336537 -1.8011243 167.12
7.4235497 1.6974928 -1.8043568 167.12
7.4375844 1.7007021 -1.6217111 167.12
7.6121407 1.7406167 -1.4712186 167.12
7.4235039 1.6743203 -1.2502735 167.28999
10.328501 2.3295224 -1.4880388 167.28999
10.72759 2.4195342 -1.2860205 167.28999
11.15416 2.5157442 -1.066771 167.28999
11.74945 2.6500077 -0.84223968 167.28999
3.2616458 0.73564184 -1.4886562 167.28999
12.350017 2.7854614 -0.59039837 167.28999
3.3574824 0.7572571 -1.4376276 167.28999
12.334751 2.7820184 -0.29357013 167.28999
4.6633229 1.0517805 -1.8667086 167.28999
12.068838 2.7220438 0 167.28999
4.6731658 1.0540005 -1.7436187 167.28999
4.5653682 1.0296875 -1.5813779 167.28999
12.007014 2.7080998 0.57400101 167.28999
4.7156649 1.0635859 -1.5084378 167.28999
11.979106 2.7018051 0.85870218 167.28999
6.2338767 1.4060081 -1.8324372 167.28999
6.8097062 1.5358826 -1.8274624 167.28999
7.4114676 1.6716057 -1.8002067 167.28999
7.5361075 1.6997173 -1.6420865 167.28999
7.3737798 1.6631054 -1.4241899 167.28999
7.5726299 1.6857461 -1.2745914 167.45
10.338832 2.3015316 -1.4885955 167.45
10.718793 2.3861146 -1.2841622 167.45
11.145592 2.4811246 -1.0652847 167.45
11.678905 2.5998459 -0.83665913 167.45
3.302923 0.73526502 -1.5065526 167.45
12.451351 2.7718003 -0.59487039 167.45
3.4568589 0.76953274 -1.4792533 167.45
12.451767 2.7718928 -0.29616973 167.45
4.6607866 1.0375395 -1.8645262 167.45
12.05687 2.6839848 0 167.45
4.6063809 1.0254283 -1.7176251 167.45
12.006782 2.6728344 0.28558561 167.45
4.7124858 1.0490483 -1.6313162 167.45
11.99893 2.6710865 0.57325566 167.45
4.7633429 1.0603696 -1.5227357 167.45
11.95934 2.6622734 0.856749 167.45
6.2133832 1.3831637 -1.8252705 167.45
6.8120804 1.5164399 -1.8269559 167.45
7.4446011 1.6572456 -1.8071235 167.45
7.3632364 1.639133 -1.603415 167.45
7.4455414 1.6574548 -1.4371506 167.45
9.9069595 2.1709368 -1.6662747 167.64
10.344473 2.2668102 -1.4883171 167.64
10.726646 2.3505569 -1.2841622 167.64
11.153758 2.4441507 -1.0652847 167.64
11.685514 2.5606759 -0.83651966 167.64
3.4374142 0.75324911 -1.5667496 167.64
12.399978 2.7172379 -0.59198219 167.64
3.4918404 0.7651757 -1.4931285 167.64
12.220656 2.677943 -0.29045987 167.64
4.6496429 1.0188878 -1.8587064 167.64
12.059844 2.6427035 0 167.64
4.754786 1.0419282 -1.7716644 167.64
12.021439 2.6342878 0.28572488 167.64
4.7714639 1.0455828 -1.6505232 167.64
11.996012 2.628716 0.57269663 167.64
4.8675408 1.0666363 -1.5549061 167.64
11.995387 2.6285789 0.85870218 167.64
6.2123017 1.3613172 -1.8236167 167.64
6.8303013 1.4967409 -1.8305014 167.64
7.4652638 1.6358819 -1.8108125 167.64
7.540617 1.6523942 -1.6408391 167.64
7.4663558 1.6361212 -1.4401129 167.64
9.9037123 2.1394491 -1.6646534 167.81
10.353089 2.2365258 -1.4885955 167.81
10.714157 2.3145254 -1.2818391 167.81
11.159015 2.4106257 -1.0650989 167.81
11.667708 2.5205164 -0.83470595 167.81
3.4753518 0.75076276 -1.583019 167.81
12.472426 2.6943557 -0.59505671 167.81
3.5067225 0.75753963 -1.4985244 167.81
4.5925527 0.99210602 -1.8346996 167.81
12.055902 2.6043758 0 167.81
4.5392523 0.98059189 -1.6902635 167.81
4.6782393 1.0106164 -1.617231 167.81
11.997901 2.591846 0.57241714 167.81
4.7288556 1.0215509 -1.5096292 167.81
11.948529 2.5811806 0.85479581 167.81
6.2238302 1.3445027 -1.8258219 167.81
6.7874327 1.4662549 -1.8178389 167.81
7.3521461 1.5882472 -1.7822231 167.81
7.6181498 1.6457106 -1.6566404 167.81
7.501915 1.6206009 -1.4460379 167.81
7.5898294 1.6160372 -1.2749157 167.98
10.353868 2.2045603 -1.4877604 167.98
10.705434 2.2794163 -1.2799807 167.98
11.13106 2.3700411 -1.0617548 167.98
11.659525 2.4825625 -0.83358985 167.98
3.479351 0.74082839 -1.5838325 167.98
12.32209 2.623637 -0.58751017 167.98
4.5161548 0.96158606 -1.9286565 167.98
12.429939 2.6466005 -0.29505563 167.98
4.546278 0.96799994 -1.8150576 167.98
12.061621 2.5681775 0 167.98
4.5108929 0.96046573 -1.6786349 167.98
4.7127218 1.0034394 -1.6281151 167.98
11.995768 2.5541561 0.57195133 167.98
4.950346 1.0540347 -1.5793319 167.98
11.975649 2.5498722 0.85619098 167.98
6.2409549 1.328833 -1.8296808 167.98
6.6668563 1.4195166 -1.7844098 167.98
7.4063158 1.5769633 -1.7942122 167.98
7.56177 1.6100628 -1.643334 167.98
7.5297585 1.6032468 -1.4504815 167.98
9.8949871 2.076184 -1.6610868 168.14999
10.352611 2.1722033 -1.486647 168.14999
10.696597 2.2443793 -1.2781223 168.14999
11.128298 2.3349595 -1.0608259 168.14999
11.63755 2.4418118 -0.83149719 168.14999
3.449347 0.72374821 -1.56919 168.14999
12.396299 2.6010137 -0.59067786 168.14999
4.5280185 0.950077 -1.9325106 168.14999
12.304671 2.5817883 -0.29189897 168.14999
4.6220617 0.96980935 -1.8441567 168.14999
12.053528 2.529093 0 168.14999
4.5357947 0.95170861 -1.6868434 168.14999
12.003293 2.5185525 0.57195133 168.14999
4.9291606 1.0342454 -1.5715872 168.14999
11.961683 2.5098219 0.85465634 168.14999
6.2448697 1.3103099 -1.8296808 168.14999
6.6710386 1.3997294 -1.7844098 168.14999
7.4661965 1.5665709 -1.8075846 168.14999
7.570343 1.588423 -1.6441656 168.14999
7.5652585 1.5873562 -1.4564064 168.14999
9.9026785 2.0489438 -1.661411 168.31
10.341181 2.1396732 -1.4841419 168.31
10.695042 2.2128899 -1.2771931 168.31
11.126975 2.3022604 -1.0600828 168.31
11.683398 2.4173889 -0.83428741 168.31
3.4424088 0.71226203 -1.5651226 168.31
12.192224 2.5226691 -0.58061582 168.31
4.5288467 0.93705481 -1.9317398 168.31
12.505674 2.5875244 -0.29649469 168.31
4.6229277 0.95652086 -1.8434293 168.31
12.046834 2.4925869 0 168.31
4.7059116 0.97369087 -1.749091 168.31
12.002471 2.4834077 0.28456435 168.31
4.4846358 0.92790711 -1.5474455 168.31
11.998541 2.4825945 0.5713923 168.31
4.7843304 0.98991644 -1.5245229 168.31
11.97646 2.4780259 0.85521436 168.31
6.2466221 1.2924763 -1.8291295 168.31
6.6919732 1.3846231 -1.7889682 168.31
7.4267101 1.536646 -1.7969788 168.31
7.5881596 1.5700511 -1.6470764 168.31
7.546566 1.5614451 -1.4519627 168.31
7.7395577 1.5746309 -1.2976125 168.5
10.338515 2.1033947 -1.4827502 168.5
10.686749 2.1742435 -1.2753347 168.5
11.130646 2.2645555 -1.0597112 168.5
11.673755 2.3750522 -0.83303183 168.5
12.151579 2.4722667 -0.57828665 168.5
