# .PCD v0.7 - Point Cloud Data file format
VERSION 0.7
FIELDS x y z intensity
SIZE 4 4 4 4
TYPE F F F F
COUNT 1 1 1 1
WIDTH 1187
HEIGHT 1
VIEWPOINT 0 0 0 1 0 0 0
POINTS 1187
DATA ascii
4.5074821 0.20626023 -1.8847182 177.38
4.76616 0.21809722 -1.8630712 177.38
5.1948228 0.23771264 -1.8927394 177.38
5.5609741 0.25446755 -1.8810074 177.38
5.893292 0.26967424 -1.840866 177.38
6.2839208 0.28754923 -1.8037709 177.38
6.7975817 0.31105411 -1.7813706 177.38
7.3602953 0.33680362 -1.7457948 177.38
7.9674783 0.36458802 -1.6953119 177.38
7.0445547 0.32235548 -1.3286514 177.38
11.011609 0.47114983 -1.5489966 177.55
10.4968 0.44912288 -1.2286421 177.55
10.470907 0.44801503 -0.97778052 177.55
10.395082 0.44477072 -0.72756004 177.55
4.2568812 0.18213768 -1.8970197 177.55
4.502543 0.19264871 -1.8824056 177.55
4.764925 0.20387517 -1.8623438 177.55
5.2067714 0.2227803 -1.8968437 177.55
5.5617046 0.2379667 -1.8810074 177.55
5.897881 0.25235057 -1.8420575 177.55
6.288588 0.26906759 -1.8048733 177.55
6.7907429 0.29055312 -1.7793447 177.55
7.3593178 0.31488055 -1.7453336 177.55
6.9944258 0.29926804 -1.3190235 177.55
7.1425099 0.28437564 -1.174401 177.72
11.009 0.4383181 -1.54844 177.72
10.51595 0.41868758 -1.2307328 177.72
10.48214 0.41734141 -0.9787094 177.72
10.549859 0.42003763 -0.73830253 177.72
4.2592287 0.16957916 -1.8978332 177.72
10.632012 0.42330852 -0.49620667 177.72
4.5104704 0.17958224 -1.8854891 177.72
4.7673707 0.18981059 -1.8630712 177.72
5.1998978 0.20703146 -1.8941076 177.72
5.5642796 0.22153914 -1.8816477 177.72
5.8966961 0.23477416 -1.8414617 177.72
6.2989635 0.25079024 -1.8076298 177.72
6.791575 0.27040333 -1.7793447 177.72
7.36022 0.29304364 -1.7453336 177.72
7.0781369 0.28181267 -1.5056964 177.72
6.9206562 0.27554265 -1.304952 177.72
7.1334615 0.26281884 -1.1727798 177.89
10.998377 0.40521437 -1.5467699 177.89
10.513176 0.38733804 -1.2302682 177.89
10.471392 0.38579857 -0.97759473 177.89
10.54109 0.38836649 -0.73760498 177.89
4.2578874 0.15687378 -1.8970197 177.89
10.629229 0.39161378 -0.49602032 177.89
4.4980741 0.16572301 -1.8800931 177.89
4.7697744 0.1757333 -1.8637987 177.89
5.2023673 0.19167137 -1.8947916 177.89
5.5686994 0.20516817 -1.8829281 177.89
5.8935509 0.21713671 -1.8402702 177.89
6.2996802 0.23209977 -1.8076298 177.89
6.7884803 0.25010869 -1.7783316 177.89
7.3688359 0.27149078 -1.7471781 177.89
7.0144281 0.25843331 -1.4919742 177.89
7.1657681 0.24272129 -1.1779677 178.06
11.023284 0.37338433 -1.55011 178.06
10.530162 0.35668114 -1.2321266 178.06
10.46851 0.35459286 -0.97722316 178.06
10.506305 0.35587305 -0.73509371 178.06
4.26016 0.14430155 -1.8978332 178.06
11.333177 0.38388112 -0.52881503 178.06
4.4985461 0.15237625 -1.8800931 178.06
4.7684131 0.16151726 -1.8630712 178.06
5.201035 0.17617118 -1.8941076 178.06
5.571177 0.18870877 -1.8835684 178.06
5.907526 0.20010169 -1.8444405 178.06
6.3061051 0.2136025 -1.8092836 178.06
6.7795243 0.22963829 -1.7757992 178.06
7.379334 0.24995527 -1.7494837 178.06
6.9408674 0.23510337 -1.476173 178.06
6.9909329 0.21481362 -1.1491102 178.24001
10.517332 0.3231709 -1.2305005 178.24001
10.479525 0.32200918 -0.9781521 178.24001
10.581156 0.32513204 -0.74025571 178.24001
4.2624183 0.13097329 -1.8986466 178.24001
4.5119147 0.13863967 -1.8854891 178.24001
4.7670345 0.14647886 -1.8623438 178.24001
5.2053199 0.15994625 -1.8954756 178.24001
5.5736365 0.17126369 -1.8842086 178.24001
5.9043088 0.18142441 -1.843249 178.24001
6.3086667 0.19384931 -1.8098348 178.24001
6.7860136 0.20851697 -1.7773187 178.24001
7.3761926 0.22665167 -1.7485614 178.24001
6.9083304 0.21227545 -1.4691041 178.24001
6.8462567 0.21036808 -1.2905101 178.24001
6.9639206 0.19330354 -1.1445708 178.41
7.1865783 0.19948404 -1.0103967 178.41
10.524201 0.29212931 -1.2311974 178.41
10.472471 0.2906934 -0.97740895 178.41
10.51626 0.29190889 -0.73565179 178.41
4.260962 0.11827519 -1.8978332 178.41
4.5104613 0.12520076 -1.8847182 178.41
4.7674484 0.13233417 -1.8623438 178.41
5.2095289 0.14460537 -1.8968437 178.41
5.576014 0.15477823 -1.8848488 178.41
5.8990955 0.16374628 -1.8414617 178.41
6.3111358 0.17518364 -1.8103862 178.41
6.7866025 0.18838157 -1.7773187 178.41
7.3768325 0.2047651 -1.7485614 178.41
6.8580856 0.19036579 -1.4582926 178.41
6.9171429 0.17025933 -1.1367891 178.59
7.1634102 0.17632097 -1.0070566 178.59
10.51911 0.25891852 -1.2305005 178.59
10.463379 0.25754678 -0.97648001 178.59
4.2631388 0.10493338 -1.8986466 178.59
4.5089874 0.11098472 -1.8839474 178.59
11.405471 0.28073552 -0.26488158 178.59
4.7697029 0.117402 -1.8630712 178.59
5.1968055 0.12791476 -1.8920554 178.59
5.5745788 0.1372133 -1.8842086 178.59
5.8957639 0.14511898 -1.8402702 178.59
6.3135772 0.15540309 -1.8109374 178.59
6.7910295 0.16715515 -1.7783316 178.59
7.375494 0.18154123 -1.7481003 178.59
6.8214917 0.16790496 -1.450392 178.59
6.8840752 0.14900899 -1.131277 178.75999
7.1342006 0.15442307 -1.0028814 178.75999
10.519832 0.22770661 -1.2305005 178.75999
10.452152 0.22624166 -0.97536534 178.75999
4.259778 0.092204869 -1.8970197 178.75999
4.5129871 0.097685695 -1.8854891 178.75999
11.260327 0.24373499 -0.26149282 178.75999
4.768168 0.1032092 -1.8623438 178.75999
5.1990414 0.11253565 -1.8927394 178.75999
5.5806441 0.12079562 -1.8861293 178.75999
5.9076209 0.12787318 -1.8438447 178.75999
6.3140101 0.13666968 -1.8109374 178.75999
6.7934299 0.14704692 -1.7788382 178.75999
7.3740544 0.15961482 -1.7476392 178.75999
6.7730637 0.1466061 -1.4399964 178.75999
6.7142668 0.14533341 -1.2653294 178.75999
6.7739882 0.12651908 -1.1131195 178.92999
7.1524491 0.13358769 -1.0053865 178.92999
10.520461 0.19649269 -1.2305005 178.92999
10.482642 0.19578634 -0.9781521 178.92999
10.496533 0.1960458 -0.73411715 178.92999
4.2600331 0.079565465 -1.8970197 178.92999
4.5151024 0.084329441 -1.8862599 178.92999
11.183036 0.20886773 -0.25968236 178.92999
4.7684531 0.08906132 -1.8623438 178.92999
5.2087474 0.097284786 -1.8961596 178.92999
5.5752945 0.10413086 -1.8842086 178.92999
5.9117923 0.11041569 -1.8450361 178.92999
6.3124657 0.11789915 -1.8103862 178.92999
6.7938361 0.1268898 -1.7788382 178.92999
7.3822789 0.13788025 -1.7494837 178.92999
6.7421737 0.12592489 -1.4333432 178.92999
6.7225285 0.12555797 -1.2668107 178.92999
6.7841816 0.1077588 -1.1147406 179.09
7.1646762 0.11380251 -1.0070566 179.09
10.520968 0.16711329 -1.2305005 179.09
10.475183 0.16638605 -0.97740895 179.09
10.538933 0.16739863 -0.7370469 179.09
4.2584119 0.067639895 -1.8962063 179.09
4.5097842 0.071632653 -1.8839474 179.09
11.103607 0.17636782 -0.25782549 179.09
4.7854481 0.076011248 -1.868891 179.09
5.2014823 0.082619466 -1.8934236 179.09
5.5793529 0.088621497 -1.8854891 179.09
5.9025326 0.093754835 -1.8420575 179.09
6.3070035 0.10017939 -1.8087323 179.09
6.8057714 0.10810173 -1.7818772 179.09
7.3767972 0.11717181 -1.7481003 179.09
6.6737237 0.10600431 -1.257553 179.09
6.7588325 0.086118296 -1.1105255 179.27
7.1234102 0.090763591 -1.0012113 179.27
10.523428 0.13408524 -1.2307328 179.27
10.481628 0.13355264 -0.97796631 179.27
10.539406 0.13428882 -0.7370469 179.27
4.2622571 0.054307945 -1.8978332 179.27
4.5118327 0.057487935 -1.8847182 179.27
11.020136 0.14041409 -0.2558758 179.27
4.763309 0.060692143 -1.8601613 179.27
5.2017159 0.066278152 -1.8934236 179.27
5.5796037 0.071093038 -1.8854891 179.27
5.912343 0.075332671 -1.8450361 179.27
6.320744 0.080536343 -1.8125912 179.27
6.8118815 0.08679422 -1.7833967 179.27
7.384913 0.094095558 -1.7499448 179.27
6.6524057 0.084762245 -1.2534797 179.27
6.7511759 0.064808629 -1.1092286 179.45
7.099895 0.06815619 -0.99787116 179.45
10.517838 0.1009671 -1.2300359 179.45
10.470049 0.10050834 -0.97685158 179.45
10.539776 0.10117769 -0.7370469 179.45
4.2660608 0.0409525 -1.8994601 179.45
4.511991 0.043313332 -1.8847182 179.45
11.004527 0.10563912 -0.25550443 179.45
4.7690649 0.045781143 -1.8623438 179.45
5.2112951 0.05002638 -1.8968437 179.45
5.5779047 0.053545687 -1.8848488 179.45
5.9030051 0.056666523 -1.8420575 179.45
6.3209658 0.06067878 -1.8125912 179.45
6.8179245 0.065449387 -1.7849162 179.45
7.3832259 0.070876062 -1.7494837 179.45
6.6290555 0.063636318 -1.2490361 179.45
6.7434444 0.044724874 -1.1079316 179.62
7.0564952 0.046801135 -0.9917475 179.62
10.53001 0.069838695 -1.2314297 179.62
10.488222 0.069561549 -0.97852367 179.62
10.514093 0.069733135 -0.73523325 179.62
4.2570281 0.028234094 -1.8953928 179.62
4.5102539 0.029913576 -1.8839474 179.62
10.964804 0.072722398 -0.254576 179.62
4.7635908 0.031593796 -1.8601613 179.62
5.2114205 0.034563959 -1.8968437 179.62
5.5818286 0.037020631 -1.8861293 179.62
5.9069657 0.039177053 -1.843249 179.62
6.3268852 0.04196211 -1.8142451 179.62
6.8238931 0.045258436 -1.7864357 179.62
7.3834038 0.048969306 -1.7494837 179.62
6.6414762 0.044048585 -1.4117204 179.62
6.6056304 0.043810844 -1.2445924 179.62
6.6981606 0.023381086 -1.100474 179.8
7.0308604 0.024542432 -0.98812902 179.8
10.528191 0.036750469 -1.2311974 179.8
10.49038 0.036618486 -0.9787094 179.8
10.514261 0.036701843 -0.73523325 179.8
4.2552691 0.01485375 -1.8945793 179.8
4.5066347 0.015731188 -1.8824056 179.8
10.960979 0.03826119 -0.25448316 179.8
4.7692556 0.016647911 -1.8623438 179.8
5.2115035 0.018191652 -1.8968437 179.8
5.5800223 0.019478032 -1.8854891 179.8
5.9146962 0.020646269 -1.845632 179.8
6.3308311 0.022098858 -1.8153477 179.8
6.8220668 0.023813602 -1.7859292 179.8
7.3718448 0.025732696 -1.746717 179.8
6.6141939 0.023087986 -1.4058988 179.8
6.5801854 0.022969272 -1.2397784 179.8
6.6488619 0.0034813362 -1.092368 179.97
6.9833694 0.003656484 -0.98144871 179.97
7.4909515 0.0039222534 -0.87600857 179.97
10.488452 0.005491741 -0.97852367 179.97
10.514323 0.0055052876 -0.73523325 179.97
4.2607756 0.0022309369 -1.8970197 179.97
4.512198 0.0023625817 -1.8847182 179.97
10.881066 0.0056973137 -0.2526263 179.97
4.7655578 0.0024952407 -1.8608888 179.97
5.2134137 0.0027297374 -1.8975278 179.97
5.5781612 0.0029207186 -1.8848488 179.97
5.9280958 0.003103944 -1.8498021 179.97
6.3327913 0.003315842 -1.8158989 179.97
6.8163028 0.0035690081 -1.7844098 179.97
6.5966263 0.0034539858 -1.4021565 179.97
6.540916 0.0034248158 -1.2323724 179.97
6.6843691 -0.015166379 -1.0982044 180.13
6.9675083 -0.015808802 -0.97922194 180.13
7.4889469 -0.016991911 -0.87577629 180.13
10.480461 -0.023779452 -0.97778052 180.13
10.540235 -0.023915075 -0.7370469 180.13
4.2589378 -0.0096632401 -1.8962063 180.13
4.5066504 -0.010225284 -1.8824056 180.13
10.901034 -0.024733705 -0.2530905 180.13
4.7655463 -0.0108127 -1.8608888 180.13
5.2209187 -0.011845909 -1.9002639 180.13
5.5800424 -0.012660736 -1.8854891 180.13
5.9395366 -0.013476404 -1.8533766 180.13
6.3327756 -0.014368637 -1.8158989 180.13
6.8182211 -0.015470079 -1.7849162 180.13
6.6304021 -0.015043931 -1.5710309 180.13
6.567266 -0.01490068 -1.3959191 180.13
6.6487718 -0.034813207 -1.092368 180.3
6.9436646 -0.036357276 -0.97588176 180.3
7.4789314 -0.03915995 -0.87461478 180.3
10.494284 -0.054948442 -0.97908098 180.3
10.512186 -0.055042181 -0.73509371 180.3
4.2588906 -0.022299703 -1.8962063 180.3
4.5139823 -0.023635373 -1.8854891 180.3
10.870921 -0.056920532 -0.25239417 180.3
4.7841229 -0.025049839 -1.8681636 180.3
5.2171021 -0.027316932 -1.8988959 180.3
5.5780854 -0.029207053 -1.8848488 180.3
5.929925 -0.031049296 -1.8503979 180.3
6.3384728 -0.03318847 -1.8175527 180.3
6.8200798 -0.035710182 -1.7854227 180.3
6.6225438 -0.034675878 -1.5691863 180.3
6.5534992 -0.034314353 -1.3930084 180.3
6.5427928 -0.034258295 -1.2327427 180.3
6.6269212 -0.055518866 -1.0888014 180.48
6.9296527 -0.05805508 -0.97393334 180.48
7.4529486 -0.062439136 -0.87159485 180.48
10.478128 -0.087783419 -0.97759473 180.48
10.539892 -0.088300854 -0.7370469 180.48
4.2587996 -0.03567927 -1.8962063 180.48
4.5120401 -0.037800867 -1.8847182 180.48
10.826702 -0.090703689 -0.2513729 180.48
4.7672544 -0.03993899 -1.8616163 180.48
5.2188697 -0.043722522 -1.8995799 180.48
5.5874395 -0.046810318 -1.88805 180.48
5.9297981 -0.049678523 -1.8503979 180.48
6.3460269 -0.053165596 -1.8197578 180.48
6.829608 -0.057216927 -1.7879553 180.48
6.5990496 -0.055285364 -1.5636529 180.48
6.5337968 -0.054738689 -1.3888501 180.48
6.5328259 -0.054730557 -1.2308911 180.48
6.624754 -0.075158671 -1.0884771 180.64999
6.9334106 -0.078660429 -0.97449005 180.64999
7.4527302 -0.084552169 -0.87159485 180.64999
10.479814 -0.11889481 -0.97778052 180.64999
10.527614 -0.11943711 -0.73620981 180.64999
4.2623286 -0.04835666 -1.8978332 180.64999
4.5137539 -0.051209107 -1.8854891 180.64999
10.808392 -0.12262257 -0.2509551 180.64999
4.7689776 -0.054104656 -1.8623438 180.64999
5.213079 -0.059143044 -1.8975278 180.64999
5.5759082 -0.063259386 -1.8842086 180.64999
5.9277153 -0.067250684 -1.8498021 180.64999
6.3362293 -0.071885325 -1.8170015 180.64999
6.8274732 -0.077458553 -1.7874488 180.64999
6.5969105 -0.074842788 -1.5631918 180.64999
6.5120878 -0.073880464 -1.384276 180.64999
6.5070863 -0.07382372 -1.2260772 180.64999
6.5968585 -0.095570311 -1.0839378 180.83
6.8856015 -0.099753402 -0.96780974 180.83
7.4266067 -0.10759108 -0.86857492 180.83
10.491335 -0.15199055 -0.97889519 180.83
10.539156 -0.15268335 -0.7370469 180.83
4.258502 -0.061693966 -1.8962063 180.83
4.5117254 -0.065362476 -1.8847182 180.83
10.811952 -0.1566354 -0.25104794 180.83
4.7669215 -0.069059566 -1.8616163 180.83
5.2185054 -0.075601771 -1.8995799 180.83
5.5775766 -0.080803722 -1.8848488 180.83
5.935111 -0.08598341 -1.8521851 180.83
6.3282828 -0.091679394 -1.8147963 180.83
6.8349347 -0.099019378 -1.7894747 180.83
6.5732918 -0.095228903 -1.5576583 180.83
6.5009265 -0.094180524 -1.2249663 180.83
6.6044388 -0.11528091 -1.0852348 181
6.8872557 -0.12021749 -0.96808809 181
7.3865314 -0.12893239 -0.86392891 181
10.502784 -0.18332678 -0.98000991 181
10.510729 -0.18346545 -0.73509371 181
4.2601271 -0.074360795 -1.8970197 181
4.5115113 -0.078748725 -1.8847182 181
10.819436 -0.18885395 -0.25123364 181
4.770421 -0.083268009 -1.8630712 181
5.2182579 -0.091085032 -1.8995799 181
5.577312 -0.097352348 -1.8848488 181
5.9405565 -0.1036928 -1.8539724 181
6.3395166 -0.11065667 -1.818104 181
6.8307419 -0.11923104 -1.7884617 181
6.5457392 -0.1142563 -1.5512027 181
6.479002 -0.1130914 -1.2208929 181
6.5744705 -0.13427167 -1.0803711 181.17
6.8571668 -0.14004523 -0.9639129 181.17
7.3622837 -0.15036133 -0.86114126 181.17
10.488257 -0.21420369 -0.9787094 181.17
10.506149 -0.21456909 -0.7348147 181.17
4.2635412 -0.087075114 -1.8986466 181.17
4.5149484 -0.092209652 -1.8862599 181.17
10.788842 -0.22034259 -0.25053731 181.17
4.76829 -0.0973837 -1.8623438 181.17
5.2066908 -0.10633724 -1.8954756 181.17
5.5732102 -0.11382274 -1.8835684 181.17
5.9440403 -0.12139627 -1.8551639 181.17
6.3295498 -0.1292696 -1.8153477 181.17
6.8284235 -0.13945819 -1.7879553 181.17
6.5084028 -0.13292235 -1.5424415 181.17
6.4055309 -0.13082138 -1.3618215 181.17
6.4589877 -0.13191314 -1.2171899 181.17
6.5424485 -0.15418135 -1.0751833 181.35001
6.8507528 -0.16144694 -0.96307784 181.35001
7.3836203 -0.17400466 -0.86369658 181.35001
10.475588 -0.24687091 -0.97759473 181.35001
10.529358 -0.24813807 -0.73648888 181.35001
4.2577667 -0.10033984 -1.8962063 181.35001
4.5109463 -0.10630634 -1.8847182 181.35001
10.830073 -0.25522482 -0.25151217 181.35001
4.7660985 -0.11231934 -1.8616163 181.35001
5.2138462 -0.1228711 -1.8982118 181.35001
5.570931 -0.13128626 -1.8829281 181.35001
5.941721 -0.14002441 -1.8545681 181.35001
6.3387222 -0.14938027 -1.818104 181.35001
6.83182 -0.16100077 -1.7889682 181.35001
6.4787693 -0.15268067 -1.5355247 181.35001
6.3816195 -0.15039119 -1.3568317 181.35001
6.4467521 -0.15192614 -1.2149681 181.35001
6.5537992 -0.17390658 -1.0771286 181.52
6.8324251 -0.18129997 -0.96057272 181.52
7.3552709 -0.1951738 -0.86044437 181.52
10.500688 -0.27863815 -0.98000991 181.52
10.49467 -0.27847847 -0.73411715 181.52
4.2592769 -0.11302089 -1.8970197 181.52
4.5143008 -0.11978801 -1.8862599 181.52
10.797289 -0.28650853 -0.25076944 181.52
4.780643 -0.12685546 -1.8674361 181.52
5.2172165 -0.13844004 -1.8995799 181.52
5.579987 -0.14806624 -1.8861293 181.52
5.9355536 -0.15750128 -1.8527809 181.52
6.3459387 -0.16839094 -1.820309 181.52
6.8293781 -0.18121913 -1.7884617 181.52
6.4510517 -0.17118014 -1.5290691 181.52
6.3576779 -0.16870244 -1.3518418 181.52
6.4600263 -0.17141828 -1.2175602 181.52
6.5650907 -0.19370051 -1.0790741 181.69
6.833837 -0.20162977 -0.96085107 181.69
7.3209043 -0.2160005 -0.85649526 181.69
10.493843 -0.30961686 -0.97945255 181.69
10.511745 -0.31014508 -0.73537272 181.69
4.25527 -0.12555014 -1.8953928 181.69
4.5139256 -0.13318166 -1.8862599 181.69
4.7709346 -0.14076461 -1.8637987 181.69
5.2167826 -0.15391919 -1.8995799 181.69
5.5833111 -0.16473348 -1.8874098 181.69
5.9369683 -0.17516801 -1.8533766 181.69
6.3511758 -0.18738905 -1.821963 181.69
6.8268766 -0.2014244 -1.7879553 181.69
6.4660778 -0.19077918 -1.532758 181.69
6.3512831 -0.1873922 -1.3505944 181.69
6.4693122 -0.19087461 -1.2194117 181.69
6.5625143 -0.21311459 -1.0787499 181.86
6.8332086 -0.22190526 -0.96085107 181.86
7.3083186 -0.23733422 -0.85510147 181.86
10.500839 -0.34100986 -0.9801957 181.86
10.526732 -0.3418507 -0.73648888 181.86
4.254879 -0.1381752 -1.8953928 181.86
4.5061321 -0.14633454 -1.8831766 181.86
4.7667718 -0.15479869 -1.8623438 181.86
5.2163029 -0.169397 -1.8995799 181.86
5.5790105 -0.18117575 -1.8861293 181.86
5.940239 -0.19290648 -1.8545681 181.86
6.354435 -0.20635732 -1.8230655 181.86
6.8281827 -0.22174205 -1.7884617 181.86
6.4596477 -0.20977405 -1.5313746 181.86
6.3604755 -0.20655346 -1.3526734 181.86
6.4431801 -0.20923926 -1.2145977 181.86
6.5480065 -0.23323849 -1.0764803 182.03999
6.812685 -0.24266627 -0.95806766 182.03999
7.2976108 -0.25993922 -0.85393995 182.03999
10.489766 -0.37364304 -0.97926676 182.03999
10.521618 -0.37477762 -0.73620981 182.03999
4.2544236 -0.15154159 -1.8953928 182.03999
4.5093389 -0.16062161 -1.8847182 182.03999
10.714316 -0.38164148 -0.24891256 182.03999
4.7699857 -0.16990578 -1.8637987 182.03999
5.2063541 -0.18544914 -1.8961596 182.03999
5.5727329 -0.19849946 -1.8842086 182.03999
5.9415116 -0.21163528 -1.8551639 182.03999
6.3556767 -0.22638774 -1.8236167 182.03999
6.8216515 -0.24298567 -1.7869422 182.03999
6.4628468 -0.23020512 -1.5322969 182.03999
6.3363342 -0.22569877 -1.3476835 182.03999
6.430706 -0.22906026 -1.2123759 182.03999
6.5315089 -0.25205693 -1.0738863 182.21001
6.7703748 -0.26127496 -0.95222235 182.21001
7.2829123 -0.28105426 -0.85231382 182.21001
10.502541 -0.40530267 -0.98056728 182.21001
10.510491 -0.40560952 -0.73551226 182.21001
4.257607 -0.16430496 -1.8970197 182.21001
4.5069985 -0.1739292 -1.8839474 182.21001
4.7713223 -0.1841297 -1.8645262 182.21001
5.209537 -0.2010408 -1.8975278 182.21001
5.5777993 -0.2152524 -1.8861293 182.21001
5.9370422 -0.22911589 -1.8539724 182.21001
6.353056 -0.24517025 -1.8230655 182.21001
6.8363676 -0.26382169 -1.7909943 182.21001
6.4310207 -0.24817897 -1.5249189 182.21001
6.3102241 -0.24351732 -1.3422779 182.21001
6.4358902 -0.24836689 -1.2134868 182.21001
6.5484791 -0.27217275 -1.0768045 182.38
6.7715483 -0.28144413 -0.9525007 182.38
7.2602143 -0.30175442 -0.84975851 182.38
10.493333 -0.43613172 -0.97982413 182.38
10.515223 -0.43704149 -0.7359308 182.38
4.2589259 -0.17701265 -1.8978332 182.38
4.5064626 -0.18730095 -1.8839474 182.38
4.7670321 -0.19813094 -1.8630712 182.38
5.2032843 -0.21626277 -1.8954756 182.38
5.5676708 -0.23140767 -1.8829281 182.38
5.9344287 -0.24665113 -1.8533766 182.38
6.3542213 -0.26409888 -1.8236167 182.38
6.8278222 -0.28378302 -1.7889682 182.38
6.4147005 -0.26661256 -1.52123 182.38
6.3114281 -0.26232028 -1.3426937 182.38
6.4488707 -0.26803276 -1.216079 182.38
6.5436997 -0.29142565 -1.076156 182.55
6.7805762 -0.30197504 -0.95389241 182.55
7.2533336 -0.32302943 -0.84906161 182.55
10.495972 -0.46744129 -0.9801957 182.55
10.523845 -0.46868265 -0.73662835 182.55
4.2602077 -0.18972963 -1.8986466 182.55
10.671813 -0.47527242 -0.49816316 182.55
4.5095744 -0.20083526 -1.8854891 182.55
4.7682843 -0.212357 -1.8637987 182.55
5.2044973 -0.23178387 -1.8961596 182.55
74.907547 -3.3360302 1.7408561 182.55
5.572638 -0.24817914 -1.8848488 182.55
5.9355779 -0.26434278 -1.8539724 182.55
6.3534098 -0.28295106 -1.8236167 182.55
6.844346 -0.30481502 -1.7935268 182.55
6.4294348 -0.28633684 -1.5249189 182.55
6.3008504 -0.28061029 -1.3406146 182.55
6.4107413 -0.28550431 -1.2090431 182.55
6.4954944 -0.30859217 -1.0683742 182.72
6.7519541 -0.32077625 -0.94999558 182.72
7.2582955 -0.34483182 -0.84975851 182.72
10.498517 -0.49877036 -0.98056728 182.72
10.526394 -0.50009477 -0.73690736 182.72
4.2541509 -0.20210896 -1.8962063 182.72
10.720245 -0.5093044 -0.50049233 182.72
4.5089583 -0.21421453 -1.8854891 182.72
4.7713552 -0.22668064 -1.8652537 182.72
75.151237 -3.570334 0 182.72
5.1981549 -0.24695732 -1.8941076 182.72
5.5699844 -0.26462245 -1.8842086 182.72
5.9309535 -0.2817716 -1.8527809 182.72
6.3544626 -0.30189195 -1.824168 182.72
6.8414788 -0.32502943 -1.7930202 182.72
6.4110613 -0.30458087 -1.5207689 182.72
6.282403 -0.2984685 -1.3368722 182.72
6.4177184 -0.30489716 -1.2105244 182.72
6.5162315 -0.32895786 -1.0719409 182.89
6.7608628 -0.34130752 -0.95138735 182.89
7.213594 -0.36416268 -0.84464788 182.89
10.485058 -0.52931541 -0.97945255 182.89
10.520879 -0.53112376 -0.73662835 182.89
4.2517076 -0.21463825 -1.8953928 182.89
10.714696 -0.54090822 -0.50030601 182.89
4.5083032 -0.22759192 -1.8854891 182.89
4.7688007 -0.24074258 -1.8645262 182.89
5.199276 -0.26247421 -1.8947916 182.89
5.563498 -0.28086114 -1.8822879 182.89
5.9358115 -0.2996566 -1.8545681 182.89
6.357379 -0.32093853 -1.8252705 182.89
6.8462815 -0.34561971 -1.7945398 182.89
6.3246093 -0.3192842 -1.5004797 182.89
6.2717209 -0.31661424 -1.3347931 182.89
6.4128599 -0.32373935 -1.2097838 182.89
6.5013709 -0.34868768 -1.0696712 183.07001
6.7498689 -0.36201534 -0.94999558 183.07001
7.2064638 -0.38650388 -0.84395099 183.07001
10.505217 -0.56342566 -0.98149621 183.07001
10.521151 -0.56428027 -0.73676789 183.07001
4.2510123 -0.22799431 -1.8953928 183.07001
10.649105 -0.57114285 -0.49732468 183.07001
4.505723 -0.24165519 -1.8847182 183.07001
4.7680211 -0.255723 -1.8645262 183.07001
5.1984258 -0.2788069 -1.8947916 183.07001
5.5625882 -0.29833797 -1.8822879 183.07001
5.9386539 -0.31850749 -1.8557596 183.07001
6.3390617 -0.33998254 -1.820309 183.07001
6.8470941 -0.36722982 -1.7950463 183.07001
6.3585548 -0.341028 -1.5087798 183.07001
6.2843695 -0.33704925 -1.3377038 183.07001
6.4196615 -0.34430537 -1.211265 183.07001
6.4687176 -0.36732039 -1.0644833 183.25
6.7566075 -0.38366798 -0.95110899 183.25
7.205214 -0.40914169 -0.84395099 183.25
10.517312 -0.59721625 -0.98279667 183.25
10.539245 -0.59846169 -0.73816299 183.25
4.2630439 -0.24207318 -1.901087 183.25
10.659226 -0.60527474 -0.49788368 183.25
4.506784 -0.25591373 -1.8854891 183.25
4.7653341 -0.27059528 -1.8637987 183.25
5.1956482 -0.29503027 -1.8941076 183.25
5.5635152 -0.31591928 -1.8829281 183.25
68.457207 -3.8872817 3.1975796 183.25
5.9414363 -0.33737919 -1.8569511 183.25
6.3494787 -0.36054954 -1.8236167 183.25
6.8459063 -0.38873875 -1.7950463 183.25
6.3555093 -0.36089197 -1.5083187 183.25
6.2793736 -0.35656866 -1.3368722 183.25
6.4165859 -0.36436015 -1.2108947 183.25
6.4675994 -0.38651183 -1.0644833 183.42
6.7257843 -0.4019413 -0.94693381 183.42
7.1682754 -0.42838511 -0.83976954 183.42
7.9214067 -0.47339317 -0.7403487 183.42
10.525474 -0.62901545 -0.73732591 183.42
4.2550116 -0.25428483 -1.8978332 183.42
4.5041628 -0.2691744 -1.8847182 183.42
4.7645102 -0.28473309 -1.8637987 183.42
5.1928735 -0.31033263 -1.8934236 183.42
68.062195 -4.067482 1.5830226 183.42
5.5606618 -0.33231211 -1.8822879 183.42
5.9289742 -0.35432291 -1.8533766 183.42
6.344543 -0.37915784 -1.8225142 183.42
6.8466544 -0.40916464 -1.7955527 183.42
6.3816075 -0.38137284 -1.5147743 183.42
6.2529016 -0.37368122 -1.3314664 183.42
6.4115529 -0.38316244 -1.2101541 183.42
6.4546061 -0.4049584 -1.0625379 183.59
6.7245622 -0.4218953 -0.94693381 183.59
7.1729207 -0.45002505 -0.84046644 183.59
7.9100299 -0.4962709 -0.73941982 183.59
10.531526 -0.6607421 -0.73788399 183.59
4.2505913 -0.26667976 -1.8962063 183.59
4.5088696 -0.282884 -1.8870307 183.59
4.7599258 -0.2986351 -1.8623438 183.59
68.080139 -4.2713103 0 183.59
5.1919298 -0.32573882 -1.8934236 183.59
5.5615425 -0.34892809 -1.8829281 183.59
5.9202747 -0.37143475 -1.8509936 183.59
6.3357148 -0.39749923 -1.820309 183.59
6.8531342 -0.42996183 -1.7975788 183.59
6.3571401 -0.39884344 -1.5092409 183.59
6.2654324 -0.39308974 -1.3343773 183.59
6.4045029 -0.40181497 -1.2090431 183.59
6.4296708 -0.42367694 -1.0586469 183.77
6.7330847 -0.44367012 -0.94832551 183.77
7.15165 -0.47125107 -0.83814347 183.77
10.527407 -0.69369334 -0.73774445 183.77
4.2515559 -0.28015217 -1.8970197 183.77
4.5061173 -0.29692626 -1.8862599 183.77
4.762682 -0.31383234 -1.8637987 183.77
5.1908813 -0.34204811 -1.8934236 183.77
5.5566378 -0.36614928 -1.8816477 183.77
5.9190788 -0.39003199 -1.8509936 183.77
6.3401899 -0.41778073 -1.821963 183.77
6.8459578 -0.45110777 -1.7960593 183.77
6.373333 -0.41996464 -1.513391 183.77
6.254406 -0.41212806 -1.3322982 183.77
6.4188986 -0.42296714 -1.2120056 183.77
6.4224787 -0.44234547 -1.0576743 183.94
6.7258115 -0.46323738 -0.94749045 183.94
7.1541834 -0.49274132 -0.83860803 183.94
7.805532 -0.53760266 -0.72994483 183.94
10.525303 -0.7249257 -0.73774445 183.94
4.2488832 -0.29264 -1.8962063 183.94
4.5070577 -0.31042168 -1.8870307 183.94
4.7784572 -0.3291142 -1.870346 183.94
5.1973433 -0.35796478 -1.8961596 183.94
5.5611978 -0.38302508 -1.8835684 183.94
60.510731 -4.1676507 2.8285456 183.94
5.9140859 -0.40733013 -1.8498021 183.94
6.3427587 -0.43685478 -1.8230655 183.94
6.8465195 -0.47155109 -1.7965658 183.94
6.311872 -0.43472746 -1.4990963 183.94
6.2590108 -0.43108669 -1.3335456 183.94
6.4136939 -0.44174039 -1.211265 183.94
6.4172812 -0.45999643 -1.0570258 184.10001
6.718565 -0.48159271 -0.94665545 184.10001
7.1448541 -0.51214951 -0.83767885 184.10001
10.543138 -0.75574148 -0.73913962 184.10001
4.2444043 -0.3042427 -1.8945793 184.10001
4.5080142 -0.32313848 -1.8878016 184.10001
10.841254 -0.77711082 -0.25234777 184.10001
4.7626538 -0.34139127 -1.8645262 184.10001
5.1963234 -0.37247708 -1.8961596 184.10001
60.542305 -4.3397264 1.4092202 184.10001
5.5563264 -0.39828244 -1.8822879 184.10001
53.851154 -3.8600988 2.517741 184.10001
5.9148297 -0.42398027 -1.8503979 184.10001
45.973492 -3.2954209 3.2230282 184.10001
6.3395963 -0.45442793 -1.8225142 184.10001
6.854825 -0.49135998 -1.7990983 184.10001
6.2931628 -0.45109954 -1.4949462 184.10001
6.2558312 -0.44842356 -1.3331298 184.10001
6.4040799 -0.4781532 -1.0550803 184.27
6.7032814 -0.50049269 -0.94470704 184.27
7.1353793 -0.53275484 -0.83674961 184.27
10.544827 -0.78731734 -0.73941863 184.27
4.2489491 -0.31724286 -1.8970197 184.27
4.5051951 -0.33637515 -1.8870307 184.27
10.820956 -0.80793411 -0.25192997 184.27
4.7579041 -0.35524338 -1.8630712 184.27
60.667133 -4.5296412 0 184.27
5.1858244 -0.38719356 -1.8927394 184.27
5.5513411 -0.41448444 -1.8810074 184.27
53.959003 -4.0287862 2.5233312 184.27
5.9078341 -0.44110158 -1.8486106 184.27
46.250011 -3.4532034 3.243118 184.27
6.3401375 -0.47337899 -1.8230655 184.27
52.830887 -3.9445567 4.9425941 184.27
6.8436899 -0.51097614 -1.7965658 184.27
6.289856 -0.46962482 -1.4944851 184.27
6.2525225 -0.46683732 -1.332714 184.27
6.4045138 -0.49842292 -1.0554045 184.45
6.715498 -0.52262485 -0.94665545 184.45
7.1356511 -0.55532271 -0.83698195 184.45
10.538324 -0.82013136 -0.73913962 184.45
4.2479315 -0.33058974 -1.8970197 184.45
4.4893966 -0.34938145 -1.880864 184.45
10.870193 -0.84595865 -0.25313693 184.45
4.7734809 -0.37148994 -1.8696185 184.45
5.1770873 -0.4029001 -1.8900033 184.45
5.5537896 -0.43221647 -1.8822879 184.45
5.9045157 -0.45951125 -1.848015 184.45
6.3405356 -0.49344391 -1.8236167 184.45
6.8266191 -0.53127271 -1.7925137 184.45
6.2864094 -0.48923162 -1.494024 184.45
6.2588267 -0.48708501 -1.3343773 184.45
6.3605204 -0.4949992 -1.2020074 184.45
6.3872695 -0.51615161 -1.0528107 184.62
6.6744356 -0.5393573 -0.9410885 184.62
7.1121917 -0.57473212 -0.83442664 184.62
10.547776 -0.85235971 -0.73997664 184.62
4.2596803 -0.34422231 -1.902714 184.62
4.503056 -0.3638894 -1.8870307 184.62
10.865643 -0.87804633 -0.2530905 184.62
4.7593594 -0.38460109 -1.8645262 184.62
103.40891 -8.3564148 0 184.62
5.179616 -0.41856179 -1.8913714 184.62
5.5581489 -0.4491508 -1.8842086 184.62
46.537556 -3.7606733 2.1773093 184.62
5.8993201 -0.47672069 -1.8468235 184.62
61.260227 -4.9504037 4.2976961 184.62
6.3352108 -0.51194477 -1.8225142 184.62
45.451817 -3.672935 4.2542648 184.62
6.8250127 -0.55152535 -1.7925137 184.62
6.2965689 -0.50882214 -1.4967908 184.62
6.2593036 -0.50581074 -1.3347931 184.62
6.3492284 -0.5130775 -1.2001559 184.62
6.3875833 -0.53638035 -1.0531349 184.8
6.7003384 -0.56264311 -0.94498533 184.8
7.098474 -0.59607553 -0.83303279 184.8
10.537094 -0.88482451 -0.73941863 184.8
4.2458329 -0.35653254 -1.8970197 184.8
4.5018907 -0.37803432 -1.8870307 184.8
10.850876 -0.91117352 -0.25281197 184.8
4.7618403 -0.39986292 -1.8659811 184.8
5.1782751 -0.43483192 -1.8913714 184.8
5.5434933 -0.46550015 -1.879727 184.8
46.483707 -3.9033458 2.1753528 184.8
5.892086 -0.49477229 -1.8450361 184.8
52.908138 -4.4428205 3.7127185 184.8
6.3354874 -0.53200573 -1.8230655 184.8
45.186054 -3.794379 4.2304845 184.8
6.8405986 -0.57442111 -1.7970723 184.8
6.3104539 -0.52990359 -1.5004797 184.8
6.2576838 -0.5254724 -1.3347931 184.8
6.357378 -0.53384393 -1.2020074 184.8
6.3505735 -0.55225271 -1.0472986 184.97
6.6927204 -0.58200622 -0.94415033 184.97
7.1026111 -0.61765075 -0.83372968 184.97
10.552311 -0.91764033 -0.74067426 184.97
4.2483969 -0.36944517 -1.8986466 184.97
4.4970722 -0.39107028 -1.8854891 184.97
10.868044 -0.94509691 -0.2532762 184.97
4.760633 -0.41398978 -1.8659811 184.97
5.1750898 -0.45003143 -1.8906873 184.97
5.5458632 -0.48227426 -1.8810074 184.97
45.852932 -3.9874206 2.146378 184.97
5.8905921 -0.51225227 -1.8450361 184.97
6.3300505 -0.55046803 -1.821963 184.97
45.287678 -3.9382653 4.2410741 184.97
6.8311539 -0.59404451 -1.7950463 184.97
6.2875271 -0.54677016 -1.4954073 184.97
6.254148 -0.54386747 -1.3343773 184.97
6.3753462 -0.554407 -1.2057104 184.97
6.3429103 -0.57166946 -1.0463258 185.14999
6.6592984 -0.60018462 -0.93969679 185.14999
7.0986571 -0.63978285 -0.83349741 185.14999
8.0039339 -0.72137302 -0.56195813 185.14999
4.241756 -0.38229805 -1.8962063 185.14999
4.4958215 -0.40519628 -1.8854891 185.14999
10.857056 -0.97851723 -0.2530905 185.14999
4.777864 -0.43061599 -1.873256 185.14999
5.1755223 -0.46645591 -1.8913714 185.14999
46.919128 -4.2286949 1.093739 185.14999
5.5367723 -0.49901438 -1.8784465 185.14999
45.975483 -4.1436462 2.1527133 185.14999
5.8927569 -0.53109831 -1.8462276 185.14999
53.060837 -4.7822304 3.7254143 185.14999
6.332119 -0.57069683 -1.8230655 185.14999
46.018826 -4.1475525 4.3107433 185.14999
6.8331079 -0.61584961 -1.7960593 185.14999
6.2896547 -0.56686962 -1.4963295 185.14999
6.2582541 -0.56403959 -1.3356247 185.14999
6.3374619 -0.58790857 -1.0456773 185.3
6.6517878 -0.61706769 -0.93886173 185.3
7.0969582 -0.65836489 -0.83349741 185.3
8.009964 -0.74306196 -0.56251621 185.3
4.2534757 -0.39458299 -1.9019005 185.3
4.4984202 -0.41730586 -1.8870307 185.3
10.908212 -1.0119241 -0.2543439 185.3
4.77672 -0.44312292 -1.873256 185.3
96.668938 -8.9677057 0 185.3
5.1686697 -0.47948298 -1.8893193 185.3
46.728718 -4.3348918 1.0895611 185.3
5.5335603 -0.51333284 -1.8778063 185.3
51.14856 -4.7449083 2.3955061 185.3
5.8875442 -0.54617095 -1.8450361 185.3
6.3286891 -0.58709472 -1.8225142 185.3
6.8333988 -0.63391525 -1.7965658 185.3
45.25201 -4.1979017 5.3145914 185.3
6.2997761 -0.58441252 -1.4990963 185.3
6.2645473 -0.58114451 -1.337288 185.3
6.3642192 -0.59039074 -1.2042292 185.3
6.3433352 -0.60967636 -1.0469743 185.49001
6.6733623 -0.64139622 -0.94220191 185.49001
7.0729852 -0.6798051 -0.83094209 185.49001
7.9975266 -0.76866543 -0.56181866 185.49001
4.2521439 -0.40868586 -1.9019005 185.49001
4.4988489 -0.43239743 -1.8878016 185.49001
10.916738 -1.0492393 -0.25462243 185.49001
4.7548251 -0.45700005 -1.8652537 185.49001
53.053516 -5.0991273 0 185.49001
5.1651802 -0.49644047 -1.8886353 185.49001
46.873306 -4.5051293 1.0932748 185.49001
5.5412579 -0.53258634 -1.8810074 185.49001
44.21199 -4.2493429 2.0712855 185.49001
5.8914018 -0.56623971 -1.8468235 185.49001
6.3381896 -0.60918176 -1.8258219 185.49001
6.8119998 -0.65472108 -1.7915008 185.49001
45.366367 -4.3602929 5.3296909 185.49001
6.3036146 -0.60585868 -1.5004797 185.49001
6.2723227 -0.60285109 -1.3393672 185.49001
6.3387494 -0.60923558 -1.1997856 185.49001
6.3434625 -0.62868935 -1.0472986 185.66
6.6674881 -0.66080296 -0.94164521 185.66
7.0946584 -0.70313901 -0.83372968 185.66
8.0031519 -0.79317826 -0.56237668 185.66
4.2527304 -0.4214806 -1.902714 185.66
4.4975462 -0.44574386 -1.8878016 185.66
10.925515 -1.0828085 -0.25490093 185.66
4.7571564 -0.47147334 -1.8667086 185.66
5.1599441 -0.51139295 -1.8872671 185.66
46.511536 -4.6096759 1.0851511 185.66
5.5321112 -0.54827774 -1.8784465 185.66
44.213104 -4.3818827 2.0719376 185.66
5.8934956 -0.58409393 -1.848015 185.66
46.230068 -4.58178 3.248559 185.66
6.3344412 -0.62779528 -1.8252705 185.66
6.8273554 -0.67664713 -1.7960593 185.66
45.426373 -4.5021272 5.3382859 185.66
6.3114724 -0.62551892 -1.5027852 185.66
6.2588258 -0.62030113 -1.3368722 185.66
6.3271351 -0.62707114 -1.197934 185.66
6.3551993 -0.65002042 -1.0495682 185.84
6.6574984 -0.68094015 -0.94053179 185.84
7.0726528 -0.7234028 -0.83140671 185.84
8.0224533 -0.82055002 -0.56391132 185.84
4.2441149 -0.43409523 -1.8994601 185.84
4.4961238 -0.45987108 -1.8878016 185.84
10.947917 -1.1197714 -0.25550443 185.84
4.751945 -0.48603693 -1.8652537 185.84
5.1564426 -0.52740961 -1.8865831 185.84
46.100994 -4.7152872 1.0759132 185.84
5.5171671 -0.56430513 -1.8739649 185.84
44.234894 -4.5244193 2.0736146 185.84
5.8973293 -0.60318875 -1.8498021 185.84
45.743069 -4.678678 3.2153549 185.84
6.3343501 -0.647888 -1.8258219 185.84
6.8155723 -0.69710821 -1.7935268 185.84
45.607643 -4.6648264 5.3612838 185.84
6.3307724 -0.64752203 -1.5078576 185.84
6.2626843 -0.64055789 -1.3381196 185.84
6.3192682 -0.64634538 -1.1968231 185.84
6.3610935 -0.66970032 -1.0508652 186.00999
6.6475701 -0.69986081 -0.93941844 186.00999
7.0684996 -0.74417657 -0.83117437 186.00999
8.0259361 -0.84497613 -0.56432986 186.00999
4.2500768 -0.44745103 -1.902714 186.00999
4.4929042 -0.47301608 -1.8870307 186.00999
10.964432 -1.154343 -0.25596863 186.00999
4.7523346 -0.50032914 -1.8659811 186.00999
5.1492476 -0.5421164 -1.884531 186.00999
45.335159 -4.7729173 1.0583658 186.00999
5.5060468 -0.57968044 -1.8707637 186.00999
46.315414 -4.8761191 2.1718125 186.00999
5.895514 -0.62068385 -1.8498021 186.00999
44.554359 -4.6907144 3.1327631 186.00999
6.3304882 -0.66647822 -1.8252705 186.00999
45.856327 -4.8277864 4.3018255 186.00999
6.8327155 -0.71935308 -1.7985919 186.00999
45.876102 -4.8298683 5.3945031 186.00999
6.3326941 -0.6667105 -1.5087798 186.00999
45.80225 -4.822093 6.4726624 186.00999
6.2821574 -0.66138995 -1.3426937 186.00999
6.3231864 -0.6657095 -1.197934 186.00999
6.3572364 -0.68724912 -1.0505409 186.17
6.6357446 -0.71735728 -0.93802673 186.17
7.0505943 -0.76220459 -0.82931596 186.17
4.2451773 -0.45892498 -1.901087 186.17
4.4915657 -0.48556077 -1.8870307 186.17
10.990983 -1.1881804 -0.25666496 186.17
4.762032 -0.51479959 -1.870346 186.17
5.1327658 -0.55487776 -1.8790587 186.17
45.083111 -4.8737102 1.0527952 186.17
5.5081739 -0.59546125 -1.8720442 186.17
44.388851 -4.7986574 2.0820928 186.17
5.8994522 -0.63776034 -1.8515894 186.17
45.628086 -4.9326248 3.2092164 186.17
6.3343363 -0.6847735 -1.8269244 186.17
45.888203 -4.9607449 4.3060985 186.17
6.8268328 -0.73801488 -1.7975788 186.17
45.674816 -4.9376769 5.3724346 186.17
6.3366122 -0.68501955 -1.5101632 186.17
45.950069 -4.967433 6.4954867 186.17
6.2802858 -0.6789304 -1.3426937 186.17
6.3310728 -0.6844207 -1.1997856 186.17
6.3687758 -0.70874548 -1.0528107 186.35001
6.6413317 -0.73907667 -0.93914008 186.35001
7.0935731 -0.78940415 -0.83465892 186.35001
4.2473464 -0.47266346 -1.902714 186.35001
4.4936862 -0.50007725 -1.8885725 186.35001
11.011043 -1.2253574 -0.25722203 186.35001
4.7640948 -0.53016949 -1.871801 186.35001
5.1253939 -0.57037646 -1.8770065 186.35001
45.043728 -5.0126648 1.0522381 186.35001
5.5194578 -0.61422968 -1.8765258 186.35001
44.437096 -4.9451561 2.0850742 186.35001
5.8955216 -0.65607971 -1.8509936 186.35001
45.195957 -5.0296059 3.1799185 186.35001
6.3283324 -0.70424473 -1.8258219 186.35001
45.937706 -5.1121507 4.3122296 186.35001
6.8206348 -0.75903034 -1.7965658 186.35001
45.485344 -5.0618095 5.3519917 186.35001
6.3576393 -0.70750612 -1.5156965 186.35001
45.969669 -5.1157074 6.5004973 186.35001
6.2917318 -0.70017171 -1.3456044 186.35001
6.3386583 -0.70539385 -1.2016371 186.35001
6.3687325 -0.72675145 -1.0531349 186.50999
6.6175966 -0.7551499 -0.93607825 186.50999
7.0775256 -0.80763352 -0.83303279 186.50999
4.2532711 -0.48535103 -1.905968 186.50999
4.4959393 -0.51304251 -1.8901142 186.50999
11.049295 -1.2608618 -0.25819689 186.50999
4.7403836 -0.54093659 -1.8630712 186.50999
5.1125774 -0.58340853 -1.8729023 186.50999
45.18848 -5.1565666 1.0559518 186.50999
5.5214863 -0.63007009 -1.8778063 186.50999
45.971371 -5.245904 2.1577444 186.50999
5.889873 -0.67210758 -1.8498021 186.50999
45.118305 -5.1485586 3.1754541 186.50999
6.3263412 -0.72191405 -1.8258219 186.50999
45.169437 -5.1543932 4.2414455 186.50999
6.8146439 -0.77763546 -1.7955527 186.50999
44.55328 -5.0840821 5.2439718 186.50999
6.3498378 -0.72459531 -1.5143132 186.50999
6.2994709 -0.71884781 -1.3476835 186.50999
6.340569 -0.72353762 -1.2023777 186.50999
6.3682475 -0.74809718 -1.0534592 186.7
6.615056 -0.77709049 -0.93607825 186.7
7.1122937 -0.83550245 -0.83744651 186.7
4.2461944 -0.49881321 -1.9035275 186.7
4.4887147 -0.5273028 -1.8878016 186.7
11.08477 -1.3021612 -0.25912532 186.7
4.7570667 -0.55882686 -1.870346 186.7
5.091949 -0.59816653 -1.8660619 186.7
45.165176 -5.3056889 1.0558126 186.7
5.525012 -0.64903975 -1.879727 186.7
45.84856 -5.3859682 2.1528065 186.7
5.8876119 -0.69163543 -1.8498021 186.7
46.157124 -5.4222159 3.2498145 186.7
6.3258219 -0.74311328 -1.8263731 186.7
45.480404 -5.3427196 4.2722859 186.7
6.8139496 -0.80045509 -1.7960593 186.7
6.3551316 -0.74655634 -1.5161577 186.7
6.3087101 -0.74110311 -1.3501785 186.7
6.3361831 -0.74433041 -1.2020074 186.7
6.3816748 -0.76887739 -1.056053 186.87
6.6009231 -0.79529285 -0.93440819 186.87
7.1117554 -0.85683894 -0.83767885 186.87
4.2428818 -0.51119119 -1.902714 186.87
4.4907951 -0.54106027 -1.8893433 186.87
11.112619 -1.3388714 -0.25986806 186.87
4.7535381 -0.57271606 -1.8696185 186.87
45.812691 -5.5196075 0 186.87
5.0845542 -0.61259758 -1.8640097 186.87
45.766602 -5.5140548 1.0702497 186.87
5.5268245 -0.66588318 -1.8810074 186.87
5.8779516 -0.70818776 -1.8474191 186.87
45.625824 -5.4970932 3.2135413 186.87
6.3216801 -0.76164907 -1.8258219 186.87
44.728886 -5.3890285 4.2031741 186.87
6.5810351 -0.79289669 -1.735279 186.87
46.035107 -5.5464048 5.422379 186.87
6.4069886 -0.77192718 -1.5290691 186.87
6.296772 -0.7586481 -1.3480994 186.87
6.3417521 -0.76406735 -1.2034886 186.87
6.3832831 -0.78829253 -1.0567015 187.03999
6.6103282 -0.81633109 -0.93607825 187.03999
7.0953813 -0.87623191 -0.83605272 187.03999
4.23772 -0.52332991 -1.901087 187.03999
8.1491718 -1.0063679 -0.38291577 187.03999
4.4873385 -0.55415612 -1.8885725 187.03999
11.146301 -1.3764933 -0.26075006 187.03999
4.7555156 -0.58727419 -1.8710735 187.03999
45.740536 -5.6486487 0 187.03999
5.0771184 -0.62699002 -1.8619577 187.03999
45.847275 -5.6618304 1.0725244 187.03999
5.522944 -0.68204641 -1.8803672 187.03999
44.624149 -5.5107827 2.0968132 187.03999
5.87393 -0.72539085 -1.8468235 187.03999
37.140484 -4.5865998 2.6168444 187.03999
6.3213005 -0.78063816 -1.8263731 187.03999
46.783901 -5.7774973 4.3978758 187.03999
6.4884038 -0.80127424 -1.7114733 187.03999
44.395912 -5.4825969 5.231195 187.03999
6.4046698 -0.79093367 -1.5290691 187.03999
6.3255582 -0.78116387 -1.3547525 187.03999
6.3453088 -0.78360295 -1.2045995 187.03999
6.380775 -0.80834228 -1.0567015 187.22
6.6332736 -0.84032983 -0.93969679 187.22
7.0728865 -0.89602178 -0.83372968 187.22
4.2360549 -0.53664052 -1.901087 187.22
8.1400242 -1.031211 -0.38263628 187.22
4.4819136 -0.56778687 -1.8870307 187.22
11.187545 -1.4172833 -0.26181775 187.22
4.7536473 -0.60221118 -1.8710735 187.22
5.0620723 -0.64128375 -1.8571694 187.22
45.410721 -5.7528133 1.0627295 187.22
5.5170145 -0.69891763 -1.8790867 187.22
44.652203 -5.6567211 2.0989561 187.22
5.8773041 -0.7445606 -1.8486106 187.22
37.092243 -4.6989946 2.6144726 187.22
6.3264461 -0.80145967 -1.8285782 187.22
46.613403 -5.9051738 4.3835702 187.22
6.4570627 -0.81800669 -1.7038758 187.22
6.3982921 -0.81056142 -1.5281467 187.22
6.3483028 -0.8042286 -1.3601583 187.22
6.3486652 -0.8042745 -1.2057104 187.22
6.3861771 -0.82828623 -1.0579985 187.39
6.5777206 -0.85312939 -0.93218142 187.39
7.0130677 -0.90959388 -0.82699299 187.39
4.2453156 -0.5506168 -1.905968 187.39
8.1151352 -1.0525317 -0.38161144 187.39
4.4783788 -0.58084512 -1.8862599 187.39
11.250708 -1.459215 -0.26339608 187.39
4.7481446 -0.61583364 -1.8696185 187.39
5.0620112 -0.65654212 -1.8578534 187.39
45.242756 -5.8679786 1.0592014 187.39
5.5149164 -0.71528381 -1.8790867 187.39
44.698624 -5.7974048 2.1019373 187.39
5.8769627 -0.76224118 -1.8492064 187.39
45.936131 -5.9579091 3.2390721 187.39
6.3202271 -0.81973255 -1.8274757 187.39
45.266628 -5.8710752 4.2585378 187.39
6.4430947 -0.83566844 -1.7008368 187.39
46.097134 -5.9787912 5.4358525 187.39
6.3688397 -0.82603753 -1.5216911 187.39
6.3481998 -0.82336056 -1.2060808 187.39
6.4089756 -0.85172474 -1.0622137 187.57001
6.5789347 -0.87431151 -0.93273813 187.57001
7.0219908 -0.93319172 -0.82838678 187.57001
4.234509 -0.5627476 -1.9019005 187.57001
8.0682192 -1.0722308 -0.37956175 187.57001
4.4820204 -0.59564078 -1.8885725 187.57001
11.255978 -1.49587 -0.26362821 187.57001
4.7535734 -0.63172901 -1.8725284 187.57001
5.0468826 -0.67070854 -1.8530651 187.57001
46.343948 -6.1589069 1.0854295 187.57001
5.5145202 -0.7328555 -1.879727 187.57001
38.463661 -5.1116514 1.8094866 187.57001
5.8764315 -0.78095192 -1.8498021 187.57001
44.026466 -5.850924 3.1056976 187.57001
6.3138094 -0.83907747 -1.8263731 187.57001
6.4155045 -0.85259235 -1.6942523 187.57001
45.217602 -6.0092206 5.3343368 187.57001
6.3584967 -0.84501624 -1.5198467 187.57001
6.4266591 -0.85407478 -1.3780386 187.57001
6.3709097 -0.84666592 -1.2108947 187.57001
6.4065723 -0.86961859 -1.0622137 187.73
6.5215163 -0.88522094 -0.9249444 187.73
4.2383523 -0.57530767 -1.904341 187.73
8.0394573 -1.091264 -0.37835059 187.73
4.4785109 -0.6079064 -1.8878016 187.73
11.24185 -1.525952 -0.26339608 187.73
4.7499447 -0.64475042 -1.871801 187.73
5.0412655 -0.68429387 -1.8516971 187.73
5.5143299 -0.7485069 -1.8803672 187.73
43.954708 -5.9663467 2.0685837 187.73
5.8742275 -0.79735893 -1.8498021 187.73
46.249897 -6.2778921 3.2637658 187.73
6.3190618 -0.85774004 -1.8285782 187.73
46.328121 -6.2885103 4.3618336 187.73
6.4111814 -0.8702442 -1.6937457 187.73
45.141594 -6.1274529 5.3273678 187.73
6.3580403 -0.86303097 -1.5203078 187.73
6.4126182 -0.87043923 -1.3755437 187.73
6.3743634 -0.86524659 -1.2120056 187.73
6.4233565 -0.89245707 -1.065456 187.91
6.5854011 -0.91497141 -0.93440819 187.91
4.2347145 -0.58836854 -1.9035275 187.91
8.0023499 -1.1118413 -0.37676674 187.91
4.4729233 -0.62146509 -1.8862599 187.91
11.256805 -1.5640134 -0.26386032 187.91
4.7460504 -0.65941322 -1.8710735 187.91
5.0353675 -0.69961077 -1.8503289 187.91
5.5081978 -0.76530546 -1.8790867 187.91
5.8679118 -0.81528389 -1.8486106 187.91
37.125843 -5.1582413 2.6210299 187.91
6.3163357 -0.87758768 -1.8285782 187.91
46.353504 -6.4403262 4.3661065 187.91
6.3892517 -0.88771856 -1.6886806 187.91
45.145733 -6.2725191 5.3301554 187.91
6.3880668 -0.88755399 -1.5281467 187.91
6.4137273 -0.89111918 -1.3763754 187.91
6.3735604 -0.8855384 -1.2123759 187.91
6.413023 -0.90928274 -1.064159 188.07001
6.5867419 -0.93391377 -0.9349649 188.07001
4.238482 -0.60096127 -1.905968 188.07001
7.9833894 -1.1319401 -0.37602141 188.07001
4.4784789 -0.63498968 -1.8893433 188.07001
11.220719 -1.5909511 -0.26311755 188.07001
4.7497239 -0.67344868 -1.873256 188.07001
5.018508 -0.71155876 -1.8448566 188.07001
37.627419 -5.3350754 0.88233513 188.07001
5.515419 -0.78201419 -1.8822879 188.07001
36.138882 -5.1240201 1.7021585 188.07001
5.8712831 -0.83247107 -1.8503979 188.07001
37.223888 -5.2778602 2.6289821 188.07001
6.315764 -0.89549267 -1.8291295 188.07001
46.362942 -6.573658 4.3687077 188.07001
6.4059043 -0.9082734 -1.6937457 188.07001
46.034729 -6.527122 5.4372463 188.07001
6.3817101 -0.90484291 -1.5272245 188.07001
6.4150877 -0.90957546 -1.377207 188.07001
6.388576 -0.9058165 -1.2157086 188.07001
6.4376416 -0.93226641 -1.0686984 188.24001
6.5819821 -0.95316905 -0.93468654 188.24001
4.2348719 -0.61327255 -1.9051545 188.24001
7.9602237 -1.152759 -0.37508976 188.24001
4.4747486 -0.64801031 -1.8885725 188.24001
35.583134 -5.1529679 -0.83475304 188.24001
4.7440176 -0.68700445 -1.871801 188.24001
5.021955 -0.72725391 -1.8469088 188.24001
36.79417 -5.3283443 0.86316299 188.24001
5.5093241 -0.79783219 -1.8810074 188.24001
36.429985 -5.2756047 1.7165992 188.24001
5.8650084 -0.84934056 -1.8492064 188.24001
29.999052 -4.3443098 2.1196203 188.24001
6.3149819 -0.91450346 -1.8296808 188.24001
46.924618 -6.7953839 4.4235139 188.24001
6.4012661 -0.92699873 -1.6932392 188.24001
37.699169 -5.4594011 4.4546118 188.24001
6.4348516 -0.93186241 -1.540597 188.24001
6.4046164 -0.92748386 -1.3755437 188.24001
6.471446 -0.9371618 -1.232002 188.24001
6.4581079 -0.95595402 -1.0725893 188.42
6.5907102 -0.97558224 -0.9363566 188.42
4.2311168 -0.62630618 -1.904341 188.42
7.9466815 -1.1762984 -0.37462392 188.42
4.4690399 -0.66152447 -1.8870307 188.42
35.62215 -5.2729278 -0.83605283 188.42
4.7455215 -0.70245039 -1.873256 188.42
5.0140676 -0.74220163 -1.8448566 188.42
37.073936 -5.4878268 0.87012625 188.42
5.5142875 -0.81624609 -1.8835684 188.42
37.278847 -5.5181584 1.7574064 188.42
5.8717542 -0.86915964 -1.8521851 188.42
29.928022 -4.4300609 2.1155744 188.42
6.3139796 -0.93461955 -1.830232 188.42
47.184731 -6.9844656 4.4500809 188.42
6.4423432 -0.95362043 -1.7048887 188.42
37.697552 -5.5801368 4.45647 188.42
6.4838715 -0.95976758 -1.5530472 188.42
6.4481158 -0.95447493 -1.3855236 188.42
6.534574 -0.96727282 -1.2445924 188.42
6.4570246 -0.97653311 -1.0729135 188.60001
6.5856543 -0.99598658 -0.93607825 188.60001
4.2237086 -0.63877589 -1.9019005 188.60001
7.9291191 -1.1991665 -0.37397176 188.60001
4.4651146 -0.6752851 -1.8862599 188.60001
25.690855 -3.8853765 -0.60324854 188.60001
4.7377653 -0.71651965 -1.8710735 188.60001
4.9987035 -0.75598288 -1.8400683 188.60001
37.161293 -5.6201172 0.87258661 188.60001
5.5023289 -0.83214903 -1.8803672 188.60001
46.648266 -7.0548873 2.2001352 188.60001
5.880321 -0.88931495 -1.8557596 188.60001
37.723858 -5.7051973 2.667906 188.60001
6.3110123 -0.95445085 -1.830232 188.60001
6.4699244 -0.97848403 -1.7129928 188.60001
37.941063 -5.7380466 4.4873662 188.60001
6.4750514 -0.97925943 -1.5516639 188.60001
6.4818373 -0.9802857 -1.3934242 188.60001
6.4700503 -0.99583596 -1.0755075 188.75
6.5928116 -1.0147308 -0.93747002 188.75
4.2238278 -0.65010929 -1.902714 188.75
7.9002829 -1.2159698 -0.37276059 188.75
4.4651556 -0.68725318 -1.8870307 188.75
4.7432384 -0.7300542 -1.8739834 188.75
68.501358 -10.543367 0 188.75
4.9855623 -0.76735145 -1.8359641 188.75
37.978428 -5.8454394 0.89213008 188.75
5.5001316 -0.84655118 -1.8803672 188.75
36.207821 -5.5729165 1.7084006 188.75
5.8798594 -0.90499693 -1.8563554 188.75
30.76965 -4.7359018 2.17696 188.75
6.3084917 -0.97096974 -1.830232 188.75
6.5151477 -1.0027771 -1.7256554 188.75
6.4782357 -0.99709588 -1.5530472 188.75
6.5024509 -1.0008229 -1.398414 188.75
6.5191817 -1.0033981 -1.2427409 188.75
6.4784098 -1.0191261 -1.0774529 188.94
6.6011496 -1.0384344 -0.93914008 188.94
4.218039 -0.66354454 -1.901087 188.94
7.884366 -1.2402986 -0.37220159 188.94
4.462852 -0.70205641 -1.8870307 188.94
4.7371106 -0.74520034 -1.8725284 188.94
