# .PCD v0.7 - Point Cloud Data file format
VERSION 0.7
FIELDS x y z intensity
SIZE 4 4 4 4
TYPE F F F F
COUNT 1 1 1 1
WIDTH 1217
HEIGHT 1
VIEWPOINT 0 0 0 1 0 0 0
POINTS 1217
DATA ascii
24.180311 -6.1814651 2.9186347 194.34
7.6889935 -1.9656177 -1.8804413 194.34
24.077463 -6.1551728 3.4926882 194.34
24.072741 -6.1539655 4.0821948 194.34
9.4695034 -2.4207878 -1.8415227 194.34
24.065069 -6.1520042 4.6799045 194.34
9.9461012 -2.5759411 -1.6879988 194.52
10.414655 -2.6972919 -1.5119766 194.52
11.134262 -2.8836629 -1.3450251 194.52
11.74963 -3.0430369 -1.1323527 194.52
12.579235 -3.2578964 -0.90864784 194.52
3.3623633 -0.87081856 -1.5464127 194.52
12.621405 -3.2688181 -0.60800689 194.52
4.8272195 -1.2502017 -2.0828257 194.52
5.0894709 -1.3181223 -2.052943 194.52
24.228611 -6.2749686 0 194.52
5.3816609 -1.3937966 -2.0233912 194.52
24.131109 -6.2497168 0.57873797 194.52
5.7283249 -1.483579 -1.9994507 194.52
24.119144 -6.2466183 1.1618838 194.52
6.1287313 -1.5872803 -1.9755054 194.52
24.115511 -6.245677 1.7419586 194.52
6.461803 -1.6735425 -1.9140258 194.52
24.125778 -6.2483358 2.3250852 194.52
6.6210685 -1.7147907 -1.7904878 194.52
24.17808 -6.2618814 2.9207253 194.52
7.6846647 -1.9902515 -1.8809024 194.52
24.081015 -6.2367425 3.4960282 194.52
24.078125 -6.2359943 4.0864096 194.52
9.520834 -2.465801 -1.8530022 194.52
24.060844 -6.2315187 4.6828666 194.52
10.456417 -2.7412391 -1.5192136 194.69
11.121814 -2.9156787 -1.3445605 194.69
11.721287 -3.0728354 -1.1304948 194.69
12.476877 -3.27092 -0.90195119 194.69
3.3898098 -0.88866764 -1.5602418 194.69
12.402938 -3.2515364 -0.59794486 194.69
4.8270593 -1.2654549 -2.0843673 194.69
5.0981522 -1.3365242 -2.0580354 194.69
24.236971 -6.353929 0 194.69
5.3647761 -1.406422 -2.0186028 194.69
24.131802 -6.3263583 0.57920218 194.69
5.722065 -1.5000883 -1.9988105 194.69
24.12756 -6.3252463 1.1631882 194.69
6.1406159 -1.6098149 -1.980867 194.69
24.120033 -6.3232727 1.7436328 194.69
6.4456511 -1.6897825 -1.9107182 194.69
24.12447 -6.3244357 2.3267572 194.69
6.688942 -1.7535634 -1.8102413 194.69
24.190138 -6.3416514 2.9244423 194.69
6.8937221 -1.8072482 -1.688616 194.69
24.07773 -6.3121829 3.498255 194.69
24.07288 -6.3109112 4.0886793 194.69
9.5305862 -2.4985247 -1.8563349 194.69
24.063162 -6.3083634 4.6869402 194.69
10.019831 -2.6604538 -1.7032381 194.87
10.476466 -2.7816992 -1.5233887 194.87
11.114519 -2.9511142 -1.3447928 194.87
11.736596 -3.1162872 -1.13291 194.87
12.476181 -3.3126612 -0.90264875 194.87
3.4894238 -0.92650771 -1.6074232 194.87
12.367559 -3.2838202 -0.59673369 194.87
4.8194923 -1.2796661 -2.0828257 194.87
12.070397 -3.2049179 -0.28994924 194.87
5.0921278 -1.3520558 -2.057308 194.87
24.232353 -6.4341464 0 194.87
5.3621478 -1.4237512 -2.0192869 194.87
24.133064 -6.4077835 0.57971281 194.87
5.7154927 -1.517571 -1.9981703 194.87
24.123016 -6.4051156 1.1639335 194.87
6.1373734 -1.6295882 -1.9814628 194.87
24.125116 -6.405673 1.7454464 194.87
6.4458847 -1.7115039 -1.912372 194.87
24.123728 -6.405304 2.328615 194.87
6.7507205 -1.7924434 -1.8284755 194.87
24.191216 -6.4232235 2.9269977 194.87
6.9293914 -1.8398839 -1.6987606 194.87
24.080751 -6.3938928 3.5015953 194.87
6.8427329 -1.8168745 -1.5048648 194.87
24.079638 -6.3935976 4.0932188 194.87
9.507493 -2.5244184 -1.8533725 194.87
24.064119 -6.3894773 4.6910133 194.87
10.017611 -2.6917078 -1.7042109 195.03999
10.510246 -2.8240778 -1.5295124 195.03999
11.117225 -2.9871714 -1.3461866 195.03999
11.74076 -3.1547139 -1.1342105 195.03999
12.414274 -3.3356855 -0.89888191 195.03999
12.502466 -3.3593826 -0.6037212 195.03999
4.8210211 -1.2953968 -2.0851381 195.03999
12.053111 -3.238642 -0.28976357 195.03999
5.0898929 -1.3676419 -2.0580354 195.03999
24.228607 -6.5101686 0 195.03999
5.36516 -1.4416056 -2.0220232 195.03999
24.133257 -6.4845476 0.58017701 195.03999
5.6871767 -1.5281307 -1.9898472 195.03999
24.128988 -6.4834008 1.1651447 195.03999
6.1398864 -1.6497726 -1.9838458 195.03999
24.131052 -6.4839559 1.7472602 195.03999
6.4352083 -1.729125 -1.9107182 195.03999
24.13154 -6.484087 2.3312161 195.03999
6.6818423 -1.7953949 -1.8112544 195.03999
24.191235 -6.5001264 2.9293206 195.03999
7.5929866 -2.0402172 -1.8629189 195.03999
24.088451 -6.4725089 3.505492 195.03999
7.6043606 -2.0432732 -1.6736891 195.03999
24.085339 -6.4716725 4.097434 195.03999
9.5113497 -2.5556767 -1.8555943 195.03999
24.067833 -6.4669685 4.695457 195.03999
10.505144 -2.8581226 -1.5300691 195.22
11.102036 -3.0205181 -1.3454897 195.22
11.728869 -3.1910601 -1.1340247 195.22
12.41721 -3.378336 -0.89985853 195.22
12.158349 -3.3079083 -0.58760333 195.22
4.8133664 -1.3095671 -2.0835965 195.22
12.12198 -3.2980132 -0.29166684 195.22
5.0891666 -1.3846037 -2.0594902 195.22
24.250492 -6.5978041 0 195.22
5.3642316 -1.4594402 -2.0233912 195.22
24.139776 -6.5676813 0.58082694 195.22
5.7097726 -1.5534513 -1.9994507 195.22
24.127779 -6.5644174 1.1660763 195.22
6.1217775 -1.665545 -1.9796755 195.22
24.131741 -6.565495 1.7487948 195.22
6.4353099 -1.7508473 -1.912372 195.22
24.126423 -6.5640483 2.3327022 195.22
6.952476 -1.8915522 -1.8862168 195.22
24.193697 -6.5823512 2.9321082 195.22
24.090931 -6.5543923 3.5088322 195.22
7.7149401 -2.098995 -1.6994702 195.22
24.083933 -6.5524879 4.1006765 195.22
9.4937916 -2.5829649 -1.8537427 195.22
24.064466 -6.5471916 4.6987901 195.22
10.540537 -2.9013684 -1.536471 195.39
11.094939 -3.0539722 -1.345722 195.39
11.71743 -3.225318 -1.133839 195.39
12.412902 -3.4167521 -0.90027708 195.39
3.4262626 -0.94310665 -1.5822055 195.39
12.187005 -3.3545721 -0.58946669 195.39
3.4981124 -0.96288383 -1.515483 195.39
12.434077 -3.422581 -0.29941925 195.39
5.0832396 -1.3992031 -2.0587628 195.39
24.24238 -6.6729121 0 195.39
5.3544416 -1.4738536 -2.0213389 195.39
24.133677 -6.6429906 0.58115184 195.39
5.706965 -1.5708885 -2.0000908 195.39
24.129383 -6.641809 1.1671011 195.39
6.1112866 -1.6821812 -1.9778883 195.39
24.139084 -6.6444793 1.7507479 195.39
6.4300866 -1.7699336 -1.912372 195.39
24.135641 -6.6435313 2.335489 195.39
6.7490983 -1.8577441 -1.8325275 195.39
24.174059 -6.6541061 2.9321082 195.39
24.086655 -6.6300473 3.511059 195.39
7.8180747 -2.1519885 -1.7235879 195.39
24.085316 -6.6296787 4.1042428 195.39
9.4898758 -2.6121655 -1.8544834 195.39
24.073359 -6.6263876 4.7043443 195.39
9.8444748 -2.7412195 -1.67892 195.56
10.550961 -2.9379427 -1.5392545 195.56
11.09157 -3.0884767 -1.3464189 195.56
11.707808 -3.2600698 -1.133839 195.56
12.38349 -3.448215 -0.89888191 195.56
3.4357703 -0.95669919 -1.5878998 195.56
12.304023 -3.4260871 -0.59561568 195.56
3.4792395 -0.96880329 -1.5085454 195.56
12.404606 -3.4540949 -0.29895502 195.56
5.0790658 -1.4142791 -2.0587628 195.56
24.24752 -6.7517858 0 195.56
5.3500452 -1.4897339 -2.0213389 195.56
24.133123 -6.7199311 0.5816161 195.56
5.6986284 -1.586798 -1.9988105 195.56
24.132666 -6.7198038 1.1682192 195.56
6.1154647 -1.7028672 -1.980867 195.56
24.136562 -6.7208886 1.7520036 195.56
6.4303627 -1.7905513 -1.9140258 195.56
24.133087 -6.7199211 2.3371611 195.56
6.7435565 -1.8777609 -1.8325275 195.56
24.169519 -6.7300658 2.9339666 195.56
6.7773714 -1.8871768 -1.6669434 195.56
24.101219 -6.7110476 3.5160692 195.56
7.0276628 -1.956871 -1.5506054 195.56
24.090254 -6.707994 4.108458 195.56
9.4782963 -2.6392565 -1.8537427 195.56
24.080099 -6.7051663 4.7095289 195.56
9.4829664 -2.6708999 -1.6186112 195.73
10.555543 -2.9729936 -1.5412029 195.73
11.080445 -3.1208339 -1.3461866 195.73
11.701918 -3.2958729 -1.1342105 195.73
12.309831 -3.467093 -0.89427799 195.73
3.4522619 -0.97233772 -1.596848 195.73
12.286111 -3.4604123 -0.59524304 195.73
3.4887841 -0.98262435 -1.5139413 195.73
12.340415 -3.4757071 -0.29765522 195.73
5.0784335 -1.4303529 -2.0602179 195.73
24.252407 -6.8307481 0 195.73
5.3329382 -1.5020348 -2.0165508 195.73
24.140022 -6.7990947 0.58226597 195.73
5.7011905 -1.6057538 -2.0013714 195.73
24.139544 -6.7989597 1.1695235 195.73
6.099359 -1.717899 -1.9772925 195.73
24.137638 -6.7984233 1.7535383 195.73
6.4231715 -1.8091015 -1.9134746 195.73
24.134129 -6.7974343 2.3392048 195.73
6.8366594 -1.9255614 -1.8593721 195.73
24.17239 -6.8082108 2.9367542 195.73
24.096453 -6.7868233 3.518296 195.73
24.09874 -6.7874675 4.1133218 195.73
9.4723158 -2.6679003 -1.8541131 195.73
24.069557 -6.7792482 4.71138 195.73
9.4939804 -2.7044313 -1.6218536 195.89999
10.575247 -3.0124383 -1.5453781 195.89999
11.080689 -3.1564174 -1.3473481 195.89999
11.692087 -3.3305788 -1.1342105 195.89999
12.113366 -3.4505832 -0.88074523 195.89999
3.285943 -0.9360255 -1.5211951 195.89999
12.143213 -3.4590852 -0.5888145 195.89999
3.4539056 -0.98387086 -1.5000662 195.89999
12.120444 -3.4525995 -0.29259527 195.89999
5.0759592 -1.445925 -2.0609453 195.89999
24.239727 -6.9048681 0 195.89999
5.3320732 -1.518881 -2.0179188 195.89999
24.142818 -6.8772626 0.58282304 195.89999
5.6945786 -1.6221434 -2.0007312 195.89999
24.144243 -6.8776684 1.1707346 195.89999
6.112597 -1.741219 -1.98325 195.89999
24.144224 -6.8776631 1.7554914 195.89999
6.4399629 -1.8344717 -1.9200898 195.89999
24.14258 -6.8771949 2.3419914 195.89999
6.7174087 -1.9135042 -1.8284755 195.89999
24.155903 -6.88099 2.9372189 195.89999
6.9850378 -1.9897404 -1.7208943 195.89999
24.100971 -6.8653421 3.5219145 195.89999
7.5671916 -2.1555712 -1.6724416 195.89999
24.101271 -6.8654275 4.1172128 195.89999
7.6005964 -2.1650867 -1.4889932 195.89999
24.07958 -6.8592491 4.7173052 195.89999
9.914506 -2.8560522 -1.6951321 196.07001
10.526296 -3.0322893 -1.5395329 196.07001
11.077003 -3.1909301 -1.348045 196.07001
11.685981 -3.3663576 -1.134582 196.07001
12.149087 -3.4997635 -0.88409352 196.07001
3.2971969 -0.94981706 -1.5277028 196.07001
12.26728 -3.5338111 -0.5953362 196.07001
12.369527 -3.5632653 -0.29886219 196.07001
5.0716467 -1.4609793 -2.0609453 196.07001
24.249884 -6.9856162 0 196.07001
5.329349 -1.5352151 -2.0186028 196.07001
24.149206 -6.956614 0.58347297 196.07001
5.6842785 -1.6374589 -1.9988105 196.07001
24.148687 -6.9564648 1.1719458 196.07001
6.1018996 -1.7577623 -1.9814628 196.07001
24.148634 -6.9564495 1.7573051 196.07001
6.4289494 -1.8519748 -1.9184361 196.07001
24.135464 -6.9526558 2.343292 196.07001
6.6931095 -1.9280709 -1.8234104 196.07001
24.162104 -6.96033 2.9404712 196.07001
6.8481984 -1.9727471 -1.688616 196.07001
24.112848 -6.9461412 3.5266464 196.07001
7.4836888 -2.1558115 -1.6553929 196.07001
24.09976 -6.9423704 4.1204548 196.07001
9.4752035 -2.7295034 -1.8578161 196.07001
24.10445 -6.9437218 4.7261925 196.07001
9.9793777 -2.9087234 -1.7077775 196.25
10.512915 -3.0642352 -1.5389762 196.25
11.084086 -3.2307167 -1.3501357 196.25
11.677259 -3.4036107 -1.1347679 196.25
12.128455 -3.5351222 -0.88339597 196.25
12.236938 -3.5667419 -0.59440452 196.25
4.808537 -1.4015608 -2.0920758 196.25
12.039621 -3.5092294 -0.2911562 196.25
5.0688205 -1.4774264 -2.0616727 196.25
24.2547 -7.0696001 0 196.25
5.3461514 -1.558261 -2.0268114 196.25
24.144508 -7.0374823 0.58389074 196.25
5.6845632 -1.6568991 -2.0007312 196.25
24.142057 -7.0367684 1.1726912 196.25
6.0945144 -1.776389 -1.980867 196.25
24.153477 -7.0400968 1.7592583 196.25
6.4212542 -1.8716248 -1.9178847 196.25
24.140268 -7.0362463 2.3458929 196.25
6.7334571 -1.9626237 -1.836073 196.25
24.14584 -7.0378704 2.9411681 196.25
6.9316487 -2.0203915 -1.7107497 196.25
24.113726 -7.0285101 3.5299866 196.25
7.4487071 -2.1711001 -1.6491555 196.25
24.096777 -7.0235701 4.1236973 196.25
9.4665823 -2.7592571 -1.8578161 196.25
24.080629 -7.0188637 4.725822 196.25
9.6867456 -2.8546388 -1.6591413 196.42
10.55317 -3.1099703 -1.5462132 196.42
11.072547 -3.2630279 -1.3499035 196.42
11.661379 -3.4365542 -1.1342105 196.42
12.081552 -3.5603769 -0.88074523 196.42
11.837282 -3.4883919 -0.57549167 196.42
4.7972765 -1.4137352 -2.0889924 196.42
12.410821 -3.6574111 -0.30039409 196.42
5.0644145 -1.4924594 -2.0616727 196.42
24.256638 -7.1483183 0 196.42
5.3505182 -1.5767728 -2.0302315 196.42
24.150372 -7.117002 0.58454067 196.42
5.6832571 -1.6748295 -2.0020115 196.42
24.151735 -7.117404 1.1741818 196.42
6.0947113 -1.796083 -1.9826543 196.42
24.157362 -7.1190619 1.7610719 196.42
6.4378018 -1.8971902 -1.9245 196.42
24.146027 -7.1157217 2.3484938 196.42
6.7276044 -1.9825937 -1.836073 196.42
24.147717 -7.11622 2.9439557 196.42
7.1309657 -2.1014624 -1.7614727 196.42
24.115562 -7.1067438 3.5333266 196.42
8.49683 -2.5039763 -1.8828483 196.42
24.111799 -7.1056352 4.129858 196.42
9.4432716 -2.7828882 -1.8548536 196.42
24.087978 -7.0986147 4.7313766 196.42
9.6536455 -2.8760421 -1.6549262 196.59
9.5018444 -2.8308172 -1.3934011 196.59
11.072335 -3.2987025 -1.3510649 196.59
3.4337769 -1.0230008 -1.5952212 196.59
12.08153 -3.5993645 -0.58788282 196.59
4.8001356 -1.4300704 -2.0920758 196.59
12.125894 -3.6125815 -0.29375583 196.59
5.0528221 -1.5053515 -2.0587628 196.59
24.267906 -7.2299652 0 196.59
5.3386116 -1.5904948 -2.0274954 196.59
24.146395 -7.1937642 0.58495843 196.59
5.6837106 -1.6933076 -2.0039322 196.59
24.157316 -7.1970181 1.1754862 196.59
6.0930147 -1.8152487 -1.9838458 196.59
24.16099 -7.1981125 1.7628856 196.59
6.4358296 -1.917381 -1.9256026 196.59
24.145802 -7.1935873 2.3505375 196.59
6.6808982 -1.9903927 -1.82493 196.59
24.151245 -7.1952095 2.9469755 196.59
7.107913 -2.1176102 -1.7573227 196.59
24.11525 -7.1844854 3.5363884 196.59
8.5512333 -2.5476084 -1.8965704 196.59
24.113308 -7.183907 4.133749 196.59
9.4104862 -2.8035994 -1.8500397 196.59
24.091297 -7.1773491 4.7361908 196.59
9.478775 -2.8545918 -1.626393 196.75999
10.540219 -3.1742523 -1.5470482 196.75999
11.052989 -3.328676 -1.3499035 196.75999
12.008631 -3.6164734 -0.8769784 196.75999
3.4639664 -1.0431949 -1.6106771 196.75999
12.36922 -3.7250671 -0.60241687 196.75999
4.7782006 -1.4389846 -2.0843673 196.75999
12.24148 -3.6865976 -0.29681963 196.75999
5.0501175 -1.5208741 -2.0594902 196.75999
12.011144 -3.6172304 0 196.75999
5.3392677 -1.6079535 -2.0295475 196.75999
24.157492 -7.275178 0.5857476 196.75999
5.6822901 -1.7112567 -2.0052128 196.75999
24.154985 -7.2744236 1.1764178 196.75999
6.0839458 -1.8322179 -1.9826543 196.75999
24.166271 -7.277822 1.7648388 196.75999
6.4282713 -1.9359137 -1.9250513 196.75999
24.147232 -7.2720885 2.352767 196.75999
6.6434689 -2.0007219 -1.8163193 196.75999
24.152617 -7.2737098 2.9497631 196.75999
6.7587242 -2.0354316 -1.6724769 196.75999
24.122272 -7.2645717 3.5405636 196.75999
7.5639567 -2.2779324 -1.6790948 196.75999
24.099445 -7.2576971 4.135046 196.75999
9.4284735 -2.839443 -1.855224 196.75999
24.098124 -7.2572989 4.741745 196.75999
10.029115 -3.052815 -1.7223684 196.92999
10.52507 -3.2037816 -1.5462132 196.92999
11.02406 -3.3556716 -1.3475804 196.92999
11.630328 -3.5402167 -1.1342105 196.92999
12.27842 -3.737493 -0.89748681 196.92999
12.266373 -3.7338257 -0.59794486 196.92999
4.7827373 -1.4558426 -2.0882215 196.92999
12.140586 -3.6955369 -0.29463783 196.92999
5.0420179 -1.5347664 -2.0580354 196.92999
24.274323 -7.3889885 0 196.92999
5.3362713 -1.6243356 -2.0302315 196.92999
24.162579 -7.3549743 0.58639753 196.92999
5.6771874 -1.7281089 -2.0052128 196.92999
24.167698 -7.3565326 1.1780949 196.92999
6.083962 -1.8519292 -1.9844415 196.92999
24.169384 -7.3570457 1.7666525 196.92999
6.4224992 -1.9549782 -1.9250513 196.92999
24.154125 -7.3524008 2.3555536 196.92999
6.6837773 -2.0345101 -1.828982 196.92999
24.163235 -7.3551741 2.9537122 196.92999
6.8941503 -2.0985465 -1.7075219 196.92999
24.121452 -7.3424559 3.5436256 196.92999
24.109901 -7.3389397 4.1405578 196.92999
9.3993244 -2.8611097 -1.8511506 196.92999
24.099047 -7.3356357 4.7461886 196.92999
10.027558 -3.0848796 -1.7236654 197.10001
10.502268 -3.2309194 -1.5442647 197.10001
11.036839 -3.395375 -1.350368 197.10001
11.642612 -3.5817354 -1.1364399 197.10001
11.838219 -3.6419115 -0.86609638 197.10001
3.5677333 -1.097578 -1.6619259 197.10001
12.295341 -3.7825406 -0.59990138 197.10001
4.7819247 -1.4711121 -2.0897632 197.10001
12.039747 -3.7039099 -0.292456 197.10001
5.0303197 -1.5475284 -2.0551255 197.10001
24.27523 -7.4680362 0 197.10001
5.3278356 -1.6390562 -2.0288634 197.10001
24.163582 -7.4336886 0.58695459 197.10001
5.6702242 -1.7443887 -2.0045726 197.10001
24.168678 -7.4352565 1.1792128 197.10001
6.0656667 -1.8660427 -1.9802713 197.10001
24.162704 -7.4334183 1.7677685 197.10001
6.3982949 -1.9683725 -1.9195385 197.10001
24.15885 -7.4322329 2.3581548 197.10001
6.7424359 -2.074244 -1.8467096 197.10001
24.145102 -7.4280033 2.9541769 197.10001
6.7539673 -2.0777917 -1.6743213 197.10001
24.126062 -7.4221463 3.5475223 197.10001
24.121973 -7.4208879 4.1463943 197.10001
9.411458 -2.8953424 -1.855224 197.10001
24.095963 -7.4128857 4.7498918 197.10001
10.032097 -3.1169689 -1.725935 197.25999
10.4724 -3.2537706 -1.5412029 197.25999
11.640172 -3.6165972 -1.1371831 197.25999
3.5698888 -1.109163 -1.6643664 197.25999
11.828751 -3.6751883 -0.57763451 197.25999
4.7848473 -1.4866502 -2.0928466 197.25999
12.176383 -3.7831976 -0.29603046 197.25999
5.0277576 -1.5621223 -2.0558529 197.25999
24.275291 -7.5423236 0 197.25999
5.3232379 -1.6539279 -2.0288634 197.25999
24.16946 -7.5094423 0.58760446 197.25999
5.6635213 -1.7596539 -2.0039322 197.25999
24.170715 -7.5098324 1.1803309 197.25999
6.0640788 -1.884107 -1.9814628 197.25999
24.178051 -7.5121117 1.7704194 197.25999
6.429492 -1.9976408 -1.930564 197.25999
24.160822 -7.5067582 2.360384 197.25999
6.8049808 -2.114305 -1.8654501 197.25999
24.164103 -7.5077777 2.9590552 197.25999
6.7351294 -2.0926023 -1.6710935 197.25999
24.127939 -7.4965415 3.5508626 197.25999
6.8525562 -2.1290867 -1.5252402 197.25999
24.123772 -7.4952469 4.1502852 197.25999
7.7873135 -2.4195154 -1.5363921 197.25999
24.110828 -7.4912252 4.7569275 197.25999
10.004761 -3.1448929 -1.7230169 197.45
10.489893 -3.297389 -1.5453781 197.45
10.559186 -3.3191707 -1.2943834 197.45
11.626215 -3.6545801 -1.1369973 197.45
11.695842 -3.6764667 -0.85730708 197.45
4.5109005 -1.4179548 -2.105269 197.45
11.87558 -3.7329655 -0.58052266 197.45
4.7728491 -1.5002956 -2.0897632 197.45
12.316366 -3.8715219 -0.29974419 197.45
5.0012226 -1.5720825 -2.0471232 197.45
12.325409 -3.8743644 0 197.45
5.3177238 -1.6715714 -2.0288634 197.45
24.173038 -7.5985436 0.58830082 197.45
5.6504245 -1.7761524 -2.0013714 197.45
24.174267 -7.5989304 1.1817284 197.45
6.0577974 -1.9042058 -1.9814628 197.45
24.179655 -7.6006236 1.7723725 197.45
6.4173303 -2.0172212 -1.9289103 197.45
24.160492 -7.5945997 2.3627992 197.45
6.6576548 -2.0927646 -1.8269559 197.45
24.146652 -7.59025 2.9599843 197.45
6.7281528 -2.1149251 -1.6710935 197.45
24.127508 -7.5842323 3.554481 197.45
24.12326 -7.5828967 4.1545005 197.45
7.8429961 -2.4653645 -1.5489824 197.45
24.110229 -7.5788002 4.7617416 197.45
10.001029 -3.1763561 -1.7239896 197.62
10.50649 -3.3368919 -1.5492749 197.62
10.748085 -3.4136231 -1.3187751 197.62
11.621015 -3.6908681 -1.1375546 197.62
11.64495 -3.6984701 -0.85437727 197.62
4.5188632 -1.4352041 -2.1109631 197.62
12.270025 -3.896996 -0.60036719 197.62
4.7630997 -1.5127743 -2.0874507 197.62
12.276239 -3.8989697 -0.29904789 197.62
5.0107408 -1.5914259 -2.052943 197.62
24.275076 -7.7098351 0 197.62
5.3091583 -1.6862042 -2.0274954 197.62
24.167538 -7.6756802 0.58871859 197.62
5.6523533 -1.7952039 -2.0039322 197.62
24.174463 -7.6778803 1.1828464 197.62
6.0484815 -1.9210154 -1.9802713 197.62
24.177914 -7.6789756 1.7739072 197.62
6.4094844 -2.035671 -1.9283589 197.62
24.162523 -7.674088 2.3652143 197.62
6.5020494 -2.0650699 -1.7859292 197.62
24.139172 -7.6666718 2.9618428 197.62
6.8591046 -2.1784716 -1.7052163 197.62
24.131327 -7.6641798 3.5583777 197.62
7.6407857 -2.4267359 -1.7040442 197.62
24.132631 -7.6645942 4.1600122 197.62
7.813168 -2.4814849 -1.5445387 197.62
24.117607 -7.6598225 4.7676663 197.62
10.012231 -3.2126484 -1.7275562 197.78999
10.505972 -3.3710761 -1.5506667 197.78999
10.683056 -3.4278975 -1.3120383 197.78999
11.564506 -3.7107301 -1.1330959 197.78999
11.597831 -3.7214231 -0.85172653 197.78999
4.512845 -1.4480473 -2.1101496 197.78999
11.594507 -3.7203567 -0.56785196 197.78999
4.7603474 -1.5274639 -2.0882215 197.78999
12.017117 -3.8559606 -0.29301307 197.78999
5.0113187 -1.6079937 -2.0551255 197.78999
24.278755 -7.7903814 0 197.78999
5.3023424 -1.7013751 -2.0268114 197.78999
24.17131 -7.7559056 0.58936852 197.78999
5.6470017 -1.8119669 -2.0039322 197.78999
24.176306 -7.7575088 1.1840576 197.78999
6.0482087 -1.940703 -1.9820585 197.78999
24.17592 -7.7573843 1.7754418 197.78999
6.3722963 -2.0446937 -1.9189873 197.78999
24.166195 -7.7542639 2.3678155 197.78999
7.0154176 -2.2510536 -1.928763 197.78999
24.152256 -7.7497916 2.9662566 197.78999
24.132996 -7.7436113 3.5619965 197.78999
7.6912971 -2.4679246 -1.7169348 197.78999
24.126696 -7.74159 4.1629305 197.78999
7.8001566 -2.5028548 -1.5434278 197.78999
24.120974 -7.7397537 4.7728505 197.78999
10.025751 -3.2478938 -1.7314471 197.95
10.490865 -3.3985698 -1.5498316 197.95
10.635647 -3.4454727 -1.3073922 197.95
11.599564 -3.7577388 -1.1375546 197.95
11.786685 -3.8183575 -0.86637539 197.95
4.5070457 -1.4600807 -2.1093361 197.95
12.249278 -3.9682169 -0.60046035 197.95
4.7560635 -1.5407513 -2.0882215 197.95
12.232656 -3.9628322 -0.29853722 197.95
5.0138984 -1.6242783 -2.0580354 197.95
24.291153 -7.8692451 0 197.95
5.2957826 -1.7155962 -2.0261273 197.95
24.183796 -7.834466 0.59020406 197.95
5.6365123 -1.8259773 -2.0020115 197.95
24.183058 -7.8342266 1.1854551 197.95
6.0282354 -1.9528781 -1.9772925 197.95
24.192123 -7.8371634 1.778232 197.95
6.3885088 -2.0695906 -1.9256026 197.95
24.174757 -7.8315377 2.3707879 197.95
6.5342226 -2.1167953 -1.7980853 197.95
24.155088 -7.8251657 2.9692764 197.95
24.137655 -7.8195186 3.5658932 197.95
7.6843753 -2.489393 -1.7169348 197.95
24.127514 -7.8162327 4.1668215 197.95
24.123573 -7.8149567 4.7776647 197.95
10.032377 -3.2849016 -1.7343652 198.13
10.474489 -3.4296622 -1.5489966 198.13
10.751255 -3.5202837 -1.3229564 198.13
10.751222 -3.5202727 -1.0554382 198.13
11.585023 -3.7932844 -0.85242409 198.13
4.5076456 -1.4759384 -2.1117766 198.13
12.289912 -4.0240865 -0.60306907 198.13
4.758215 -1.5579824 -2.091305 198.13
12.341759 -4.0410624 -0.30150822 198.13
5.0016885 -1.6377029 -2.0551255 198.13
24.28722 -7.9523649 0 198.13
5.2992973 -1.735149 -2.0295475 198.13
24.183767 -7.9184909 0.59080756 198.13
5.6361504 -1.8454448 -2.0039322 198.13
24.184908 -7.9188647 1.1867594 198.13
6.0311427 -1.9747772 -1.9802713 198.13
24.192032 -7.9211974 1.7800457 198.13
6.3710132 -2.086061 -1.922295 198.13
24.172745 -7.9148817 2.3730173 198.13
6.3657308 -2.0843313 -1.753513 198.13
24.156815 -7.9096665 2.9725287 198.13
24.143085 -7.9051709 3.5703468 198.13
24.132849 -7.9018188 4.1720095 198.13
7.9177842 -2.5925202 -1.5697194 198.13
24.123184 -7.8986549 4.7824788 198.13
10.028209 -3.3165128 -1.735338 198.3
10.503755 -3.4737849 -1.5548419 198.3
10.416371 -3.4448855 -1.2830006 198.3
11.963928 -3.9566908 -0.88116378 198.3
4.4945731 -1.4864379 -2.1077092 198.3
12.368965 -4.0906439 -0.60754102 198.3
4.746563 -1.5697756 -2.0882215 198.3
5.0003448 -1.653706 -2.0565803 198.3
24.292 -8.0338106 0 198.3
5.2816353 -1.7467339 -2.0247593 198.3
24.182945 -7.9977446 0.59136462 198.3
5.6396446 -1.8651341 -2.0071335 198.3
24.191654 -8.0006247 1.1882501 198.3
6.0433836 -1.9986581 -1.9862288 198.3
24.187365 -7.9992061 1.7814409 198.3
6.3848739 -2.1115952 -1.9283589 198.3
24.175623 -7.9953227 2.3756185 198.3
6.4770832 -2.1420906 -1.7859292 198.3
24.155872 -7.988791 2.9753163 198.3
6.7182107 -2.2218356 -1.6766269 198.3
24.14773 -7.9860983 3.574522 198.3
7.6355925 -2.5252309 -1.7094499 198.3
24.135529 -7.9820628 4.1765485 198.3
24.123901 -7.9782176 4.7872925 198.3
10.01458 -3.3450019 -1.7346895 198.47
10.525336 -3.5156014 -1.5595738 198.47
10.424946 -3.4820695 -1.2853236 198.47
10.758474 -3.5934727 -1.0582249 198.47
11.602049 -3.8752377 -0.85535389 198.47
4.483211 -1.4974517 -2.1044555 198.47
12.421201 -4.1488447 -0.61070871 198.47
4.7366333 -1.582098 -2.0859089 198.47
4.9989505 -1.6697154 -2.0580354 198.47
24.287025 -8.1121874 0 198.47
5.2835598 -1.7647787 -2.0274954 198.47
24.189453 -8.0795965 0.59210736 198.47
5.6286941 -1.8800582 -2.0052128 198.47
24.188654 -8.0793295 1.1892749 198.47
6.0338049 -2.0153706 -1.9850373 198.47
24.19191 -8.0804176 1.7835336 198.47
6.369463 -2.1274848 -1.9256026 198.47
24.180126 -8.0764809 2.3784051 198.47
6.4413371 -2.1514916 -1.7778251 198.47
24.160324 -8.0698671 2.9788008 198.47
6.604528 -2.2059996 -1.6498821 198.47
24.146471 -8.0652399 3.577862 198.47
7.5445681 -2.5199852 -1.6907378 198.47
24.137945 -8.0623922 4.181088 198.47
7.637547 -2.5510414 -1.5171362 198.47
24.120628 -8.0566082 4.7913661 198.47
10.023312 -3.3810089 -1.737932 198.64
10.501723 -3.5423841 -1.5576253 198.64
10.608441 -3.5783818 -1.3092507 198.64
11.934566 -4.025703 -0.88074523 198.64
4.483942 -1.512499 -2.1068959 198.64
12.439124 -4.1958981 -0.61219937 198.64
4.7389131 -1.5985043 -2.0889924 198.64
12.265513 -4.1373363 -0.30053335 198.64
4.9816175 -1.6803721 -2.052943 198.64
24.296963 -8.1957188 0 198.64
5.2800808 -1.7810482 -2.0281794 198.64
24.195686 -8.1615572 0.59285009 198.64
5.6195006 -1.8955394 -2.0039322 198.64
24.191078 -8.1600027 1.1905792 198.64
6.0223718 -2.0314336 -1.98325 198.64
24.182951 -8.1572618 1.7846496 198.64
6.3740525 -2.1500609 -1.9289103 198.64
24.188133 -8.159009 2.3815634 198.64
6.504591 -2.1940932 -1.7970723 198.64
24.164509 -8.151041 2.9822853 198.64
6.5610728 -2.2131455 -1.6406597 198.64
24.154337 -8.1476097 3.5825939 198.64
7.3739338 -2.4873352 -1.6541454 198.64
24.156929 -8.1484842 4.1885457 198.64
7.7267852 -2.6063571 -1.5363921 198.64
24.139452 -8.1425886 4.7998829 198.64
10.025717 -3.4169378 -1.7402016 198.82001
10.522411 -3.5862203 -1.5623572 198.82001
10.623471 -3.6206632 -1.3125029 198.82001
11.175502 -3.8088048 -1.1015126 198.82001
12.093711 -4.1217461 -0.8934409 198.82001
4.4808979 -1.5271677 -2.1077092 198.82001
12.408862 -4.2291555 -0.61136091 198.82001
4.7233868 -1.609812 -2.0843673 198.82001
24.175606 -8.2394657 -0.59298939 198.82001
4.9780769 -1.696615 -2.0536704 198.82001
24.303276 -8.2829781 0 198.82001
5.2655649 -1.7945958 -2.0247593 198.82001
24.190746 -8.2446251 0.59336072 198.82001
5.6063437 -1.9107392 -2.0013714 198.82001
24.203144 -8.2488508 1.1924425 198.82001
6.0231886 -2.0528071 -1.985633 198.82001
24.20064 -8.2479973 1.7878584 198.82001
6.363627 -2.1688344 -1.9278077 198.82001
24.18877 -8.2439518 2.3841643 198.82001
6.6185355 -2.2557116 -1.8305014 198.82001
24.165106 -8.2358866 2.9855375 198.82001
24.149244 -8.2304811 3.5856557 198.82001
7.4475584 -2.5382571 -1.6724416 198.82001
24.142418 -8.2281542 4.1904912 198.82001
7.7911119 -2.6553462 -1.5508339 198.82001
24.124914 -8.2221889 4.8021049 198.82001
10.021132 -3.4485962 -1.7411743 198.99001
10.530452 -3.6238697 -1.5651407 198.99001
10.622073 -3.6553996 -1.3136644 198.99001
11.27713 -3.8808258 -1.1126596 198.99001
12.055017 -4.1485219 -0.89148772 198.99001
4.4711637 -1.5386723 -2.105269 198.99001
12.420817 -4.274406 -0.61257207 198.99001
4.7255697 -1.6262217 -2.0874507 198.99001
24.14916 -8.3105087 -0.59294295 198.99001
4.987114 -1.7162275 -2.0594902 198.99001
24.301287 -8.3628607 0 198.99001
5.2602172 -1.8102112 -2.0247593 198.99001
24.196426 -8.3267746 0.59410352 198.99001
5.5970669 -1.926132 -2.0000908 198.99001
24.197453 -8.3271275 1.1933743 198.99001
6.0170712 -2.0706692 -1.985633 198.99001
24.194927 -8.3262587 1.7892536 198.99001
6.3698893 -2.1920853 -1.9316666 198.99001
24.184916 -8.322813 2.3862081 198.99001
6.4453292 -2.2180467 -1.7844098 198.99001
24.172495 -8.3185387 2.9894867 198.99001
6.6780853 -2.2981455 -1.6733991 198.99001
24.15468 -8.3124084 3.5901093 198.99001
7.5990796 -2.6150894 -1.7082025 198.99001
24.149622 -8.310668 4.196003 198.99001
9.3164225 -3.2060828 -1.8563349 198.99001
24.12829 -8.3033257 4.8076591 198.99001
10.015841 -3.4820058 -1.7421471 199.17
10.53211 -3.6614866 -1.5670891 199.17
10.603032 -3.6861424 -1.3127352 199.17
10.574582 -3.6762519 -1.0444769 199.17
11.989158 -4.1680288 -0.88758135 199.17
4.4594049 -1.5503114 -2.102015 199.17
12.331846 -4.2871647 -0.60884541 199.17
4.7169514 -1.6398474 -2.0859089 199.17
12.153064 -4.2250109 -0.29872292 199.17
4.9764185 -1.7300513 -2.057308 199.17
24.30323 -8.4490147 0 199.17
5.2527294 -1.8261106 -2.0240753 199.17
24.200365 -8.4132538 0.59484625 199.17
5.5909882 -1.9437062 -2.0000908 199.17
24.2108 -8.4168816 1.1953307 199.17
6.0105362 -2.0895622 -1.985633 199.17
24.200686 -8.4133654 1.7916253 199.17
6.3575234 -2.2101922 -1.9300128 199.17
24.186863 -8.4085598 2.3889947 199.17
6.5516348 -2.2776749 -1.8158129 199.17
24.170635 -8.4029179 2.9925065 199.17
24.158379 -8.3986568 3.5945628 199.17
7.49474 -2.6055453 -1.6865796 199.17
24.147629 -8.3949194 4.2002182 199.17
7.7153401 -2.6822369 -1.5389842 199.17
24.133644 -8.3900576 4.8139544 199.17
10.019114 -3.5145345 -1.7444167 199.33
10.52932 -3.6935058 -1.5682025 199.33
10.412746 -3.6526139 -1.2904342 199.33
10.547362 -3.6998348 -1.0428048 199.33
11.951115 -4.1922469 -0.88562816 199.33
4.4843678 -1.5730397 -2.115844 199.33
12.389579 -4.3460526 -0.61229259 199.33
4.7123532 -1.6530132 -2.0859089 199.33
4.9786 -1.746408 -2.0602179 199.33
24.307852 -8.5267792 0 199.33
5.2582498 -1.8445044 -2.0281794 199.33
24.203192 -8.4900665 0.59549612 199.33
5.59269 -1.9618202 -2.0026519 199.33
24.207939 -8.4917326 1.1963556 199.33
6.0010748 -2.1050746 -1.9844415 199.33
24.201572 -8.4894981 1.7934389 199.33
6.36584 -2.2330279 -1.934423 199.33
24.195232 -8.4872751 2.392153 199.33
6.516037 -2.2857146 -1.8077089 199.33
24.175192 -8.4802446 2.995991 199.33
6.7322779 -2.3615682 -1.6904604 199.33
24.164734 -8.4765759 3.5990164 199.33
7.254837 -2.544873 -1.6341859 199.33
24.150164 -8.4714651 4.2047577 199.33
7.8487716 -2.7532151 -1.5671273 199.33
24.141649 -8.4684782 4.8202496 199.33
10.013604 -3.5479703 -1.7453895 199.50999
10.526999 -3.7298737 -1.5695943 199.50999
10.316962 -3.6554544 -1.2799807 199.50999
10.558211 -3.7409327 -1.0450343 199.50999
11.941647 -4.2311044 -0.88590723 199.50999
4.4828482 -1.5883404 -2.117471 199.50999
12.441773 -4.4083071 -0.61555338 199.50999
4.7210531 -1.67274 -2.0920758 199.50999
12.20128 -4.3230963 -0.30053335 199.50999
4.9748449 -1.7626622 -2.0609453 199.50999
24.303566 -8.6111183 0 199.50999
5.2418003 -1.8572485 -2.0240753 199.50999
24.202785 -8.5754099 0.59614605 199.50999
5.5954289 -1.9825445 -2.0058529 199.50999
24.213156 -8.5790844 1.1979394 199.50999
5.9908323 -2.1226418 -1.98325 199.50999
24.204872 -8.576149 1.7956711 199.50999
6.3624177 -2.2542999 -1.9355255 199.50999
24.19285 -8.5718899 2.3945682 199.50999
6.5179429 -2.3094049 -1.8102413 199.50999
24.176517 -8.566103 2.9994757 199.50999
6.5689034 -2.327461 -1.6512654 199.50999
24.16412 -8.5617104 3.6029131 199.50999
7.6690755 -2.7172685 -1.7294095 199.50999
24.153194 -8.5578394 4.2099457 199.50999
7.7548652 -2.7476649 -1.5500933 199.50999
24.144567 -8.5547819 4.8261747 199.50999
10.020383 -3.5818985 -1.7483076 199.67
10.522137 -3.761256 -1.5704293 199.67
10.29362 -3.67957 -1.2783545 199.67
11.414043 -4.0800776 -1.1308664 199.67
11.98051 -4.2825675 -0.88967407 199.67
4.4646316 -1.5959326 -2.1109631 199.67
12.37674 -4.4242043 -0.61294472 199.67
4.7076745 -1.6828111 -2.0882215 199.67
4.9593778 -1.7727852 -2.0565803 199.67
24.315207 -8.6917439 0 199.67
5.2401328 -1.8731444 -2.0254433 199.67
24.212633 -8.6550779 0.59698164 199.67
5.5916553 -1.9987999 -2.0064933 199.67
24.215441 -8.6560812 1.1992438 199.67
5.9866796 -2.1400058 -1.9838458 199.67
24.205252 -8.6524391 1.7974849 199.67
6.3560977 -2.2720585 -1.9355255 199.67
24.200697 -8.6508102 2.3977265 199.67
6.4968934 -2.3223875 -1.8061893 199.67
24.180561 -8.6436129 3.0029602 199.67
6.4011135 -2.2881498 -1.610687 199.67
24.162497 -8.6371555 3.6062534 199.67
7.652247 -2.7353816 -1.7273303 199.67
24.160793 -8.6365471 4.2154574 199.67
24.13909 -8.6287889 4.8298774 199.67
10.025787 -3.6193919 -1.7512258 199.85001
10.527035 -3.8003461 -1.5729344 199.85001
10.91541 -3.9405527 -1.3571048 199.85001
11.386185 -4.1105065 -1.1293801 199.85001
11.944477 -4.3120546 -0.88799989 199.85001
4.4664698 -1.6124324 -2.114217 199.85001
12.152317 -4.3870864 -0.60251004 199.85001
4.71278 -1.7013524 -2.0928466 199.85001
12.090781 -4.3648715 -0.29844439 199.85001
4.9572883 -1.7896219 -2.0580354 199.85001
12.082752 -4.3619733 0 199.85001
5.2324548 -1.8889593 -2.0247593 199.85001
12.064452 -4.3553667 0.29779449 199.85001
5.5889125 -2.0176435 -2.0077736 199.85001
12.054603 -4.3518109 0.59766537 199.85001
5.9799271 -2.158803 -1.9838458 199.85001
24.207975 -8.7392778 1.7997171 199.85001
6.3579698 -2.2952795 -1.9382819 199.85001
24.205242 -8.7382917 2.4008849 199.85001
6.573278 -2.3730075 -1.8294885 199.85001
24.181313 -8.7296534 3.0064447 199.85001
6.4689436 -2.3353419 -1.6295929 199.85001
24.165049 -8.7237816 3.610707 199.85001
7.6748967 -2.7707009 -1.7343993 199.85001
24.166956 -8.7244701 4.2212939 199.85001
7.5794401 -2.7362404 -1.5182471 199.85001
24.154383 -8.7199306 4.8383946 199.85001
10.022422 -3.6518257 -1.7525228 200.02
10.515712 -3.8315637 -1.5729344 200.02
10.920467 -3.9790425 -1.3591955 200.02
11.387035 -4.149044 -1.1306807 200.02
11.927881 -4.3461099 -0.88772088 200.02
4.4565158 -1.623801 -2.1117766 200.02
12.518422 -4.5612822 -0.62132972 200.02
4.7163811 -1.7184869 -2.0967009 200.02
12.671428 -4.6170321 -0.31311363 200.02
4.9624591 -1.8081493 -2.0624001 200.02
24.323669 -8.862709 0 200.02
5.2215295 -1.9025457 -2.0227072 200.02
24.219429 -8.8247261 0.59846711 200.02
5.5846815 -2.0348659 -2.008414 200.02
24.225935 -8.8270969 1.2024114 200.02
5.96632 -2.1739216 -1.9814628 200.02
24.211931 -8.8219948 1.8019493 200.02
6.3547444 -2.3154502 -1.9393845 200.02
24.205402 -8.8196154 2.403486 200.02
6.4825854 -2.362031 -1.8061893 200.02
24.185167 -8.8122435 3.0101614 200.02
7.5755539 -2.7602713 -1.910414 200.02
24.16511 -8.8049345 3.6146038 200.02
7.5453286 -2.749258 -1.706955 200.02
24.163214 -8.804244 4.2251849 200.02
7.7393341 -2.819947 -1.5519449 200.02
24.145023 -8.797616 4.8417273 200.02
10.51545 -3.8668487 -1.5746045 200.19
10.9198 -4.0155401 -1.3605893 200.19
11.38402 -4.1862483 -1.1316096 200.19
11.905571 -4.3780384 -0.88702333 200.19
4.4516783 -1.6370167 -2.1117766 200.19
12.148571 -4.4673963 -0.60362804 200.19
4.7095294 -1.7318362 -2.0959301 200.19
4.9553242 -1.8222224 -2.0616727 200.19
24.331055 -8.9472637 0 200.19
5.2211533 -1.9199759 -2.0247593 200.19
24.21941 -8.906209 0.59911704 200.19
5.5679498 -2.0475032 -2.0045726 200.19
24.233389 -8.9113493 1.2040884 200.19
5.9526758 -2.1889789 -1.9790798 200.19
24.211864 -8.9034338 1.8039024 200.19
6.3261933 -2.3263326 -1.9327692 200.19
24.209032 -8.9023924 2.4064584 200.19
6.7479358 -2.4814198 -1.8821647 200.19
24.196203 -8.8976746 3.0148075 200.19
24.177916 -8.8909492 3.6204491 200.19
7.6069098 -2.7972906 -1.7227563 200.19
24.168474 -8.8874779 4.2306972 200.19
9.2232561 -3.3916698 -1.8515209 200.19
24.146484 -8.8793917 4.8472819 200.19
10.514391 -3.9040012 -1.5762745 200.37
10.905269 -4.0491347 -1.3603569 200.37
11.367079 -4.2206049 -1.131238 200.37
11.895499 -4.4168081 -0.88730234 200.37
3.2800746 -1.2178942 -1.5578014 200.37
3.299247 -1.2250129 -1.4700031 200.37
12.269977 -4.5558519 -0.30387571 200.37
4.9565606 -1.8403748 -2.0645826 200.37
12.061417 -4.4784131 0 200.37
5.2115722 -1.9350607 -2.0233912 200.37
12.0338 -4.4681592 0.29802659 200.37
5.5703712 -2.0682831 -2.0077736 200.37
12.035213 -4.4686837 0.59869021 200.37
5.952929 -2.2103271 -1.9814628 200.37
24.219311 -8.9926491 1.8065531 200.37
6.3260632 -2.3488722 -1.9349742 200.37
24.216413 -8.9915733 2.4099884 200.37
6.6131401 -2.4554641 -1.8467096 200.37
24.196064 -8.9840174 3.018292 200.37
24.177713 -8.9772034 3.6246243 200.37
7.6952839 -2.8572648 -1.744795 200.37
24.171886 -8.9750395 4.2362089 200.37
9.2162399 -3.4219971 -1.8522615 200.37
24.155319 -8.9688883 4.8546882 200.37
9.2662678 -3.4718907 -1.6257446 200.53999
10.499052 -3.9337912 -1.5757178 200.53999
10.917389 -4.0905337 -1.3633769 200.53999
11.3601 -4.2564092 -1.1317953 200.53999
11.884211 -4.4527831 -0.88744187 200.53999
3.2713137 -1.2256978 -1.5553609 200.53999
12.38484 -4.6403594 -0.61676455 200.53999
3.2955978 -1.2347965 -1.4700031 200.53999
12.475471 -4.6743169 -0.30930704 200.53999
4.9493341 -1.8544195 -2.0638552 200.53999
24.334003 -9.1174793 0 200.53999
5.2005281 -1.948537 -2.0213389 200.53999
24.22447 -9.0764389 0.60060251 200.53999
5.558887 -2.0828071 -2.0058529 200.53999
24.238367 -9.081646 1.2070698 200.53999
5.9499202 -2.2293198 -1.9826543 200.53999
24.224283 -9.0763693 1.8089249 200.53999
6.3334684 -2.3730278 -1.9393845 200.53999
24.212006 -9.0717688 2.4122179 200.53999
6.8540425 -2.5680768 -1.9161005 200.53999
24.200926 -9.0676174 3.0222411 200.53999
24.180645 -9.0600195 3.6290777 200.53999
7.6592932 -2.8697886 -1.7385576 200.53999
24.172873 -9.057106 4.2410727 200.53999
9.2097273 -3.4507062 -1.8530022 200.53999
24.156208 -9.0508633 4.8602424 200.53999
9.2743855 -3.5063481 -1.628987 200.71001
10.474366 -3.9600222 -1.5737695 200.71001
10.907063 -4.123611 -1.3636092 200.71001
11.347421 -4.2900968 -1.1317953 200.71001
11.876545 -4.4901414 -0.88786042 200.71001
3.2779167 -1.2392753 -1.5602418 200.71001
12.406524 -4.6905093 -0.61853474 200.71001
3.2867408 -1.2426114 -1.4676906 200.71001
4.9403248 -1.8677785 -2.0624001 200.71001
24.340519 -9.2023706 0 200.71001
5.1947236 -1.9639587 -2.0213389 200.71001
24.225487 -9.1588802 0.60129887 200.71001
24.244951 -9.1662397 1.2087468 200.71001
5.9397078 -2.2456133 -1.9814628 200.71001
24.21031 -9.1531429 1.8099015 200.71001
6.3317947 -2.3938487 -1.9410383 200.71001
24.222237 -9.1576519 2.4159334 200.71001
6.8590612 -2.5931914 -1.919646 200.71001
24.205502 -9.1513252 3.0261903 200.71001
6.9756312 -2.6372628 -1.7670062 200.71001
24.185152 -9.143631 3.6338096 200.71001
7.709301 -2.9146399 -1.751864 200.71001
24.179121 -9.1413517 4.2469091 200.71001
9.160841 -3.4634209 -1.8452258 200.71001
24.160501 -9.1343117 4.8665376 200.71001
9.260253 -3.5324435 -1.6283385 200.88
9.2949219 -3.5456684 -1.3981329 200.88
10.907771 -4.1609106 -1.3652353 200.88
11.317897 -4.3173585 -1.1301233 200.88
11.816567 -4.5075827 -0.88437259 200.88
4.4504199 -1.6976703 -2.1207249 200.88
12.439218 -4.7451005 -0.62086391 200.88
12.281247 -4.6848407 -0.30517551 200.88
4.9417238 -1.8850845 -2.06531 200.88
24.343006 -9.2859554 0 200.88
5.1853619 -1.9780234 -2.0199709 200.88
24.231831 -9.2435465 0.60213441 200.88
24.241915 -9.2473927 1.209958 200.88
5.9330187 -2.263227 -1.9814628 200.88
24.224056 -9.2405806 1.8129708 200.88
6.3192754 -2.4105694 -1.9393845 200.88
24.222868 -9.2401266 2.4187202 200.88
6.8386827 -2.6087041 -1.9161005 200.88
24.207939 -9.2344322 3.0299072 200.88
7.5369077 -2.875051 -1.9113363 200.88
24.193073 -9.2287617 3.6390982 200.88
7.7444868 -2.9542348 -1.7618437 200.88
24.17955 -9.2236023 4.2517724 200.88
9.1578703 -3.4933882 -1.846707 200.88
24.162674 -9.217165 4.8724627 200.88
9.2454271 -3.5600996 -1.62769 201.06
9.3170052 -3.5876622 -1.4031432 201.06
10.898353 -4.1965857 -1.3656999 201.06
11.33587 -4.3650584 -1.1332816 201.06
11.925231 -4.5920014 -0.89358044 201.06
4.4604101 -1.7175523 -2.128046 201.06
12.400012 -4.7748232 -0.61965275 201.06
12.512769 -4.8182421 -0.31130317 201.06
24.337976 -9.3717279 0 201.06
5.1826296 -1.9956546 -2.0213389 201.06
24.234392 -9.3318415 0.60292357 201.06
4.3090916 -1.6592847 -1.5602502 201.06
24.248167 -9.3371449 1.2117281 201.06
5.9223161 -2.2804828 -1.9802713 201.06
24.230282 -9.3302584 1.8156215 201.06
6.3188477 -2.4331734 -1.9415896 201.06
24.221594 -9.3269129 2.4215069 201.06
6.8105922 -2.6225276 -1.9105289 201.06
24.206615 -9.3211451 3.0333917 201.06
6.5053596 -2.504993 -1.6517266 201.06
24.193533 -9.3161077 3.6435518 201.06
7.8246236 -3.0129967 -1.7822191 201.06
24.185448 -9.312994 4.2579331 201.06
9.1743622 -3.5327351 -1.8522615 201.06
24.17028 -9.3071537 4.8798685 201.06
9.2630453 -3.5966187 -1.6325536 201.22
10.893998 -4.2298789 -1.3666291 201.22
11.35148 -4.4075084 -1.1360683 201.22
11.951418 -4.64045 -0.89651018 201.22
4.4521899 -1.7286788 -2.1264191 201.22
12.215292 -4.7429056 -0.61108142 201.22
4.6845183 -1.8188864 -2.0990133 201.22
12.270006 -4.7641497 -0.30559331 201.22
24.356457 -9.4570293 0 201.22
5.1787887 -2.0107996 -2.0220232 201.22
24.239925 -9.4117832 0.60371274 201.22
4.3097401 -1.6733689 -1.5621709 201.22
24.249933 -9.4156685 1.2131256 201.22
5.9123654 -2.29563 -1.9790798 201.22
24.226452 -9.4065514 1.8172957 201.22
6.3174047 -2.4528971 -1.9432434 201.22
24.230724 -9.4082108 2.4250369 201.22
6.8014383 -2.6408358 -1.9100224 201.22
24.211971 -9.4009295 3.0373406 201.22
6.5019674 -2.5245583 -1.6526488 201.22
24.196964 -9.3951025 3.6480052 201.22
7.6976414 -2.9888101 -1.7551905 201.22
24.19614 -9.3947821 4.2644181 201.22
9.1571331 -3.5554955 -1.8507804 201.22
24.175343 -9.3867073 4.8861637 201.22
10.473862 -4.1046615 -1.5810064 201.39999
10.893602 -4.2691565 -1.3682553 201.39999
11.376513 -4.4584069 -1.1399698 201.39999
11.953499 -4.684525 -0.89776582 201.39999
4.4467373 -1.7426572 -2.1264191 201.39999
12.142669 -4.7586598 -0.60819322 201.39999
4.6890903 -1.8376344 -2.1036384 201.39999
12.310826 -4.8245602 -0.30698597 201.39999
24.348972 -9.5422573 0 201.39999
5.1706963 -2.0263736 -2.0213389 201.39999
24.245607 -9.50175 0.60459477 201.39999
5.5234709 -2.1646247 -2.0045726 201.39999
24.251856 -9.5041981 1.2147094 201.39999
5.9157896 -2.3183725 -1.9826543 201.39999
24.233932 -9.4971743 1.8200859 201.39999
4.286994 -1.6800545 -1.320303 201.39999
24.232567 -9.4966393 2.4281952 201.39999
6.764286 -2.6508946 -1.9019184 201.39999
24.221159 -9.4921684 3.0422192 201.39999
6.8672647 -2.6912515 -1.7476392 201.39999
24.200521 -9.4840803 3.6530156 201.39999
7.6827497 -3.0108366 -1.753943 201.39999
24.188557 -9.4793921 4.2683091 201.39999
9.1605568 -3.589983 -1.8537427 201.39999
24.171354 -9.4726496 4.8913479 201.39999
9.165082 -3.6194639 -1.6189355 201.55
10.47229 -4.135705 -1.5823982 201.55
10.889779 -4.3005795 -1.3691844 201.55
11.37962 -4.4940267 -1.1414561 201.55
11.959751 -4.7231317 -0.89916092 201.55
4.3911786 -1.7341594 -2.102015 201.55
12.29183 -4.8542757 -0.61629874 201.55
4.6842632 -1.8499042 -2.1036384 201.55
12.110325 -4.7825961 -0.30229738 201.55
24.35553 -9.6184587 0 201.55
5.1706176 -2.0419745 -2.0233912 201.55
24.255983 -9.5791464 0.6054768 201.55
5.5177851 -2.1790776 -2.0045726 201.55
24.265911 -9.5830669 1.216666 201.55
5.9168029 -2.3366573 -1.9850373 201.55
24.246098 -9.575242 1.8228762 201.55
4.2807927 -1.6905659 -1.3197516 201.55
24.242813 -9.573945 2.431725 201.55
6.751924 -2.6664624 -1.9003989 201.55
24.227634 -9.5679502 3.0461683 201.55
6.9525094 -2.7456772 -1.7711562 201.55
24.206924 -9.5597715 3.6577475 201.55
7.6075177 -3.0043526 -1.7385576 201.55
24.200369 -9.5571823 4.2747936 201.55
24.181204 -9.549614 4.8983836 201.55
9.0228739 -3.5979362 -1.5959144 201.74001
10.473235 -4.1762786 -1.5846249 201.74001
10.871768 -4.335196 -1.3687198 201.74001
11.362804 -4.5310006 -1.1412703 201.74001
11.945876 -4.7635045 -0.89930046 201.74001
4.4346209 -1.7683371 -2.1256056 201.74001
12.093803 -4.8224916 -0.60716838 201.74001
4.678103 -1.8654275 -2.1036384 201.74001
12.222548 -4.8738298 -0.30550048 201.74001
3.7344067 -1.4891218 -1.5698975 201.74001
24.353224 -9.7110243 0 201.74001
3.8702445 -1.5432881 -1.5165173 201.74001
24.253801 -9.6713791 0.60621953 201.74001
5.507009 -2.1959596 -2.0032921 201.74001
24.261835 -9.6745825 1.2180635 201.74001
5.9143419 -2.3583868 -1.9868245 201.74001
24.240158 -9.6659384 1.8248293 201.74001
4.2840919 -1.7083127 -1.322508 201.74001
24.244226 -9.6675606 2.4350691 201.74001
6.7430449 -2.688838 -1.9003989 201.74001
24.228985 -9.6614838 3.0503497 201.74001
7.4621754 -2.9755964 -1.9034972 201.74001
24.208204 -9.6531963 3.6627576 201.74001
8.3225565 -3.3186798 -1.904471 201.74001
24.199707 -9.6498079 4.2803059 201.74001
8.941925 -3.5656571 -1.8137499 201.74001
24.178614 -9.6413975 4.9043088 201.74001
8.8223543 -3.5465636 -1.5621933 201.89999
10.479908 -4.2128959 -1.5874084 201.89999
10.874364 -4.3714662 -1.3705783 201.89999
11.339022 -4.5582576 -1.1401556 201.89999
12.008424 -4.8273554 -0.90502048 201.89999
4.4296651 -1.780714 -2.1256056 201.89999
12.195216 -4.9024453 -0.61294472 201.89999
4.6677389 -1.8764189 -2.101326 201.89999
12.169932 -4.8922815 -0.30452561 201.89999
3.6783769 -1.478698 -1.5480733 201.89999
24.372402 -9.7976427 0 201.89999
24.263802 -9.7539864 0.60714793 201.89999
5.500855 -2.2113295 -2.0032921 201.89999
24.269943 -9.7564554 1.2198336 201.89999
4.2372704 -1.7033719 -1.4250327 201.89999
24.250093 -9.7484751 1.8276196 201.89999
6.2949839 -2.5305674 -1.9454484 201.89999
24.24485 -9.7463675 2.437856 201.89999
6.7373047 -2.7083793 -1.9009054 201.89999
24.227715 -9.7394791 3.0536017 201.89999
6.807404 -2.7365589 -1.7384168 201.89999
24.210554 -9.7325802 3.6672113 201.89999
8.3150721 -3.3426375 -1.904887 201.89999
24.203794 -9.7298632 4.2858181 201.89999
8.842577 -3.554693 -1.7956051 201.89999
24.186243 -9.7228079 4.9113445 201.89999
8.7959156 -3.5698628 -1.5595994 202.09
10.46955 -4.249115 -1.5879651 202.09
10.876374 -4.4142265 -1.372669 202.09
11.338605 -4.6018248 -1.1416419 202.09
11.959074 -4.8536453 -0.90250927 202.09
4.4322009 -1.798829 -2.129673 202.09
12.360307 -5.0164876 -0.62207508 202.09
3.8013551 -1.5427974 -1.7135904 202.09
12.357438 -5.0153227 -0.309632 202.09
3.6855369 -1.4957922 -1.5531656 202.09
24.360163 -9.8866844 0 202.09
4.1689777 -1.6919987 -1.6375924 202.09
24.246145 -9.8404093 0.60751933 202.09
5.5005145 -2.232409 -2.0058529 202.09
24.267076 -9.8489046 1.2213243 202.09
4.2333679 -1.7181318 -1.4256285 202.09
24.245363 -9.8400917 1.8297123 202.09
4.448154 -1.8053037 -1.3765329 202.09
24.245609 -9.8401918 2.4412 202.09
6.7193227 -2.7270679 -1.8983729 202.09
24.232098 -9.8347082 3.0582478 202.09
6.9209137 -2.8088846 -1.7697729 202.09
24.21118 -9.8262186 3.6722214 202.09
8.293066 -3.3657789 -1.902392 202.09
24.204311 -9.823431 4.2916541 202.09
8.936367 -3.6268656 -1.8170826 202.09
24.183006 -9.814785 4.9172692 202.09
8.7779789 -3.5929546 -1.5583024 202.25999
10.460563 -4.2816606 -1.5885217 202.25999
10.868744 -4.4487352 -1.3733659 202.25999
11.33043 -4.6377101 -1.1421993 202.25999
11.966778 -4.8981762 -0.90418339 202.25999
12.389743 -5.0713024 -0.62431109 202.25999
12.322147 -5.0436344 -0.30912137 202.25999
3.8190155 -1.5631787 -1.6113638 202.25999
24.362188 -9.9717979 0 202.25999
3.8247712 -1.5655345 -1.5042046 202.25999
24.261251 -9.9304838 0.60863346 202.25999
24.278423 -9.9375124 1.223374 202.25999
4.2141161 -1.7248991 -1.4208626 202.25999
24.240065 -9.9218111 1.8315259 202.25999
4.4356608 -1.8155805 -1.3743279 202.25999
24.251322 -9.9264193 2.44473 202.25999
6.7308984 -2.7550547 -1.9039444 202.25999
24.239578 -9.9216127 3.0628939 202.25999
6.8387051 -2.7991815 -1.750867 202.25999
24.213078 -9.9107656 3.6769533 202.25999
8.2739906 -3.3866646 -1.9003129 202.25999
24.206108 -9.9079123 4.2971663 202.25999
8.9182911 -3.6503863 -1.8156015 202.25999
24.190159 -9.9013844 4.9246755 202.25999
8.7660866 -3.6167006 -1.5579782 202.42
10.433919 -4.3048124 -1.586295 202.42
10.883823 -4.4904332 -1.3768504 202.42
11.332162 -4.6754084 -1.1436855 202.42
11.971496 -4.9391842 -0.90557855 202.42
4.1397061 -1.7079544 -1.9938231 202.42
12.763365 -5.2658925 -0.64387614 202.42
3.7514625 -1.5477735 -1.6950902 202.42
12.189722 -5.0292196 -0.30615038 202.42
3.8697453 -1.5965744 -1.6346431 202.42
24.415596 -10.073354 0 202.42
3.8394949 -1.5840938 -1.511729 202.42
24.26115 -10.009634 0.60932976 202.42
24.276434 -10.015939 1.2246783 202.42
4.2145772 -1.7388448 -1.4226497 202.42
24.247305 -10.003922 1.8341768 202.42
6.2913074 -2.5956595 -1.9515125 202.42
24.256643 -10.007773 2.4480741 202.42
6.7714696 -2.7937641 -1.9176199 202.42
24.237486 -9.9998703 3.0661461 202.42
6.8668418 -2.8331125 -1.7600894 202.42
24.220093 -9.9926939 3.6822419 202.42
8.2048225 -3.3851349 -1.8865907 202.42
24.214832 -9.9905243 4.3036513 202.42
9.1042833 -3.756233 -1.8555943 202.42
24.195118 -9.9823895 4.9313407 202.42
8.7601471 -3.6464975 -1.5589509 202.60001
10.434971 -4.3436594 -1.5885217 202.60001
10.878832 -4.5284209 -1.3780119 202.60001
11.332125 -4.7171082 -1.1451718 202.60001
11.952236 -4.9752355 -0.90529954 202.60001
4.301312 -1.7904633 -2.0743568 202.60001
