# .PCD v0.7 - Point Cloud Data file format
VERSION 0.7
FIELDS x y z intensity
SIZE 4 4 4 4
TYPE F F F F
COUNT 1 1 1 1
WIDTH 1141
HEIGHT 1
VIEWPOINT 0 0 0 1 0 0 0
POINTS 1141
DATA ascii
-0.12989348 -5.8133669 -2.1164207 271.28
-0.14018284 -6.2738662 -2.120455 271.28
-0.15182906 -6.7950912 -2.1208682 271.28
-0.16598634 -7.4286985 -2.1306767 271.28
-0.182476 -8.1666918 -2.1384552 271.28
-0.20254092 -9.0646944 -2.1483512 271.28
-0.22619337 -10.123258 -2.1523018 271.28
-0.256313 -11.471257 -2.1618359 271.28
-0.33831057 -13.27368 -2.1814938 271.45999
-0.39870167 -15.643136 -2.1992133 271.45999
-0.48887286 -19.181019 -2.2437992 271.45999
-0.61605793 -24.171152 -2.2557878 271.45999
-0.86031407 -33.754585 -2.3611171 271.45999
-0.12874371 -5.0512838 -2.1105762 271.45999
-0.13789313 -5.4102631 -2.1133237 271.45999
-0.14820392 -5.8148088 -2.1171048 271.45999
-0.16022998 -6.2866535 -2.1249366 271.45999
-0.17312704 -6.7926722 -2.1202724 271.45999
-0.18917647 -7.4223747 -2.1290228 271.45999
-0.20793428 -8.1583414 -2.1364293 271.45999
-0.23106703 -9.065959 -2.1488123 271.45999
-0.2580452 -10.124453 -2.1527176 271.45999
-0.2923497 -11.470395 -2.1618359 271.45999
-0.37526473 -13.268738 -2.1808453 271.62
-0.44232795 -15.639982 -2.198935 271.62
-0.54254669 -19.18355 -2.2442639 271.62
-0.68338519 -24.163364 -2.2552304 271.62
-0.95496601 -33.766014 -2.3620937 271.62
-0.14290121 -5.0527496 -2.111347 271.62
-0.15321155 -5.4173059 -2.1162336 271.62
-0.16428193 -5.8087363 -2.1150525 271.62
-0.17762429 -6.2804999 -2.1230159 271.62
-0.19214903 -6.7940707 -2.1208682 271.62
-0.20995724 -7.4237394 -2.1295743 271.62
-0.23087992 -8.1635303 -2.1379488 271.62
-0.25632802 -9.0633335 -2.1483512 271.62
-0.28631696 -10.123693 -2.1527176 271.62
-0.32443544 -11.471499 -2.1622062 271.62
-0.41707176 -13.271439 -2.1814938 271.79999
-0.49152234 -15.640494 -2.1992133 271.79999
-0.60237402 -19.167852 -2.2426376 271.79999
-0.75916803 -24.157118 -2.2548587 271.79999
-1.0606015 -33.748886 -2.3611171 271.79999
-0.15877415 -5.0522757 -2.111347 271.79999
-0.16999567 -5.4093499 -2.1133237 271.79999
-0.18264784 -5.8119488 -2.1164207 271.79999
-0.19741367 -6.2818046 -2.123656 271.79999
-0.21361218 -6.7972503 -2.1220596 271.79999
-0.23364086 -7.4345727 -2.1328819 271.79999
-0.25646445 -8.1608315 -2.1374424 271.79999
-0.28504452 -9.0702639 -2.1501956 271.79999
-0.31836581 -10.130564 -2.154381 271.79999
-0.36059603 -11.474352 -2.1629467 271.79999
-0.4565827 -13.274087 -2.182142 271.97
-0.5379945 -15.640946 -2.1994917 271.97
-0.65944833 -19.171938 -2.2433345 271.97
-0.83077174 -24.152769 -2.254673 271.97
-1.1603887 -33.735622 -2.3604195 271.97
-0.17370041 -5.0499377 -2.1105762 271.97
-0.18617284 -5.4125452 -2.1147785 271.97
-0.19995601 -5.8132596 -2.1171048 271.97
-0.21559532 -6.2679358 -2.1191745 271.97
-0.23351654 -6.7889543 -2.1196766 271.97
-0.255236 -7.4203968 -2.1290228 271.97
-0.28061044 -8.1581011 -2.1369357 271.97
-0.31202215 -9.0713234 -2.1506567 271.97
-0.34822059 -10.12371 -2.1531334 271.97
-0.39423412 -11.461446 -2.1607249 271.97
-0.49596563 -13.272674 -2.182142 272.14001
-0.58469546 -15.647199 -2.2006052 272.14001
-0.71640378 -19.171881 -2.243567 272.14001
-0.90265375 -24.156168 -2.2552304 272.14001
-1.2600321 -33.720066 -2.3595824 272.14001
-0.18854526 -5.045712 -2.1090343 272.14001
-0.20230091 -5.4138308 -2.1155062 272.14001
-0.21713322 -5.8107624 -2.1164207 272.14001
-0.23433319 -6.2710552 -2.120455 272.14001
-0.2538726 -6.7939548 -2.121464 272.14001
-0.2773234 -7.4215283 -2.1295743 272.14001
-0.304887 -8.1591654 -2.1374424 272.14001
-0.33864519 -9.0625782 -2.1488123 272.14001
-0.37832972 -10.124587 -2.1535492 272.14001
-0.42831251 -11.46219 -2.1610951 272.14001
-0.53758055 -13.269078 -2.181818 272.32001
-0.63376945 -15.643305 -2.2003267 272.32001
-0.77671081 -19.17152 -2.2437992 272.32001
-0.97797376 -24.139284 -2.2539299 272.32001
-1.3664449 -33.727905 -2.3604195 272.32001
-0.20432116 -5.0432506 -2.1082635 272.32001
-0.21900627 -5.4057226 -2.1125963 272.32001
-0.23538718 -5.8100519 -2.1164207 272.32001
-0.25441658 -6.2797542 -2.123656 272.32001
-0.27506056 -6.7893085 -2.1202724 272.32001
-0.30071524 -7.4225411 -2.1301255 272.32001
-0.3304399 -8.1562347 -2.1369357 272.32001
-0.36719319 -9.0634146 -2.1492734 272.32001
-0.41005594 -10.121393 -2.1531334 272.32001
-0.464479 -11.464715 -2.1618359 272.32001
-0.57463264 -13.267526 -2.181818 272.48001
-0.67753696 -15.643453 -2.2006052 272.48001
-0.83041662 -19.173246 -2.2442639 272.48001
-1.0450348 -24.128502 -2.2531867 272.48001
-1.4587263 -33.680103 -2.3573503 272.48001
-0.21880303 -5.0518794 -2.1121178 272.48001
-0.23442347 -5.4125352 -2.1155062 272.48001
-0.2516923 -5.8112493 -2.1171048 272.48001
-0.27162403 -6.2714472 -2.1210952 272.48001
-0.29401881 -6.7885141 -2.1202724 272.48001
-0.32127529 -7.4178314 -2.1290228 272.48001
-0.35329881 -8.1572132 -2.1374424 272.48001
-0.39266998 -9.0662422 -2.1501956 272.48001
-0.43831855 -10.120209 -2.1531334 272.48001
-0.49666277 -11.4673 -2.1625764 272.48001
-0.61631095 -13.265655 -2.181818 272.66
-0.72677082 -15.643226 -2.2008834 272.66
-0.89073914 -19.172527 -2.2444961 272.66
-1.1205542 -24.119131 -2.2526295 272.66
-1.5649911 -33.685322 -2.3580477 272.66
-0.23450159 -5.0474801 -2.1105762 272.66
-0.25151274 -5.4136329 -2.1162336 272.66
-0.26986036 -5.8085527 -2.1164207 272.66
-0.2916767 -6.2781339 -2.123656 272.66
-0.31569847 -6.7951856 -2.1226554 272.66
-0.34466669 -7.4187059 -2.1295743 272.66
-0.37883389 -8.15413 -2.1369357 272.66
-0.42096978 -9.0610752 -2.1492734 272.66
-0.4702915 -10.12269 -2.1539652 272.66
-0.53250343 -11.461758 -2.1618359 272.66
-0.65354735 -13.267824 -2.1824663 272.82001
-0.77045208 -15.641135 -2.2008834 272.82001
-0.94398218 -19.164013 -2.2437992 272.82001
-1.1882949 -24.123865 -2.2533727 272.82001
-1.6620948 -33.742592 -2.3623726 272.82001
-0.24850509 -5.0449619 -2.1098051 272.82001
-0.26635447 -5.4073272 -2.1140511 272.82001
-0.28607982 -5.8077765 -2.1164207 272.82001
-0.30930063 -6.2791872 -2.1242964 272.82001
-0.33439118 -6.7885566 -2.1208682 272.82001
-0.36538225 -7.4177141 -2.1295743 272.82001
-0.40169817 -8.154973 -2.1374424 272.82001
-0.44607994 -9.0559769 -2.1483512 272.82001
-0.49865377 -10.123292 -2.154381 272.82001
-0.56450856 -11.460226 -2.1618359 272.82001
-0.69681603 -13.251788 -2.1801968 273.01001
-0.82262772 -15.644427 -2.2017186 273.01001
-1.0075272 -19.160776 -2.2437992 273.01001
-1.2681814 -24.117802 -2.2531867 273.01001
-1.7712563 -33.685093 -2.3587453 273.01001
-0.26542723 -5.0477962 -2.111347 273.01001
-0.28438219 -5.4082747 -2.1147785 273.01001
-0.30523884 -5.8049188 -2.1157367 273.01001
-0.32972348 -6.2705588 -2.1217353 273.01001
-0.35670048 -6.7835975 -2.1196766 273.01001
-0.39038208 -7.4241414 -2.1317792 273.01001
-0.42873883 -8.1535959 -2.1374424 273.01001
-0.47631255 -9.0583353 -2.1492734 273.01001
-0.53201562 -10.117675 -2.1535492 273.01001
-0.6025089 -11.458291 -2.1618359 273.01001
-0.73006171 -13.265811 -2.1827905 273.14999
-0.86085176 -15.642371 -2.2017186 273.14999
-1.0548885 -19.168175 -2.2449608 273.14999
-1.3271085 -24.114632 -2.2531867 273.14999
-1.8533399 -33.676682 -2.3584664 273.14999
-0.27776051 -5.0471325 -2.111347 273.14999
-0.29759622 -5.4075637 -2.1147785 273.14999
-0.3198351 -5.8116617 -2.1184728 273.14999
-0.34494025 -6.2678423 -2.1210952 273.14999
-0.37369451 -6.7903309 -2.1220596 273.14999
-0.40809894 -7.4154868 -2.1295743 273.14999
-0.44866052 -8.152524 -2.1374424 273.14999
-0.49855176 -9.0590878 -2.1497345 273.14999
-0.55673617 -10.116344 -2.1535492 273.14999
-0.63018101 -11.450897 -2.1607249 273.14999
-0.77393377 -13.261347 -2.1824663 273.34
-0.91306514 -15.645362 -2.2025535 273.34
-1.1180995 -19.158623 -2.2442639 273.34
-1.4067202 -24.104134 -2.2526295 273.34
-0.29460341 -5.0480261 -2.1121178 273.34
-0.31552672 -5.4065471 -2.1147785 273.34
-0.33888653 -5.8068171 -2.1171048 273.34
-0.36561286 -6.2647724 -2.120455 273.34
-0.39632124 -6.7909603 -2.1226554 273.34
-0.43235129 -7.4083352 -2.1279204 273.34
-0.47524193 -8.1432648 -2.1354163 273.34
-0.52859002 -9.0573845 -2.1497345 273.34
-0.59039408 -10.116396 -2.1539652 273.34
-0.66895163 -11.462479 -2.163317 273.34
-0.81132478 -13.265043 -2.183439 273.5
-0.95675164 -15.642751 -2.2025535 273.5
-1.1719599 -19.161373 -2.2449608 273.5
-1.4725672 -24.07626 -2.2504001 273.5
-2.0607283 -33.692612 -2.3604195 273.5
-0.30836099 -5.0416574 -2.1098051 273.5
-0.33050966 -5.4037852 -2.1140511 273.5
-0.35487142 -5.8020964 -2.1157367 273.5
-0.38310596 -6.2637272 -2.120455 273.5
-0.4155167 -6.7936382 -2.123847 273.5
-0.45350704 -7.4147744 -2.1301255 273.5
-0.49809843 -8.143837 -2.1359227 273.5
-0.55388093 -9.0558729 -2.1497345 273.5
-0.61864203 -10.114708 -2.1539652 273.5
-0.70071828 -11.456642 -2.1625764 273.5
-0.85286742 -13.260459 -2.1831148 273.67999
-1.0057628 -15.637691 -2.202275 273.67999
-1.2324061 -19.161562 -2.2454252 273.67999
-1.5484532 -24.075491 -2.2507715 273.67999
-0.32419828 -5.0406642 -2.1098051 273.67999
-0.34772366 -5.4064384 -2.1155062 273.67999
-0.3733387 -5.8047037 -2.1171048 273.67999
-0.40278211 -6.2624927 -2.120455 273.67999
-0.43648985 -6.7865834 -2.1220596 273.67999
-0.47679895 -7.4133134 -2.1301255 273.67999
-0.52380472 -8.1441631 -2.1364293 273.67999
-0.58220309 -9.052146 -2.1492734 273.67999
-0.65028965 -10.110763 -2.1535492 273.67999
-0.73645455 -11.450461 -2.1618359 273.67999
-0.89247322 -13.261808 -2.1837633 273.85001
-1.0522894 -15.636615 -2.2025535 273.85001
-1.2892542 -19.157822 -2.2454252 273.85001
-1.6196123 -24.066816 -2.2504001 273.85001
-2.2635579 -33.635601 -2.3573503 273.85001
-0.33964843 -5.0470452 -2.1128886 273.85001
-0.36351314 -5.4016657 -2.1140511 273.85001
-0.39055994 -5.8035707 -2.1171048 273.85001
-0.42110705 -6.2574892 -2.1191745 273.85001
-0.45598313 -6.7757339 -2.119081 273.85001
-0.49982527 -7.4272113 -2.1345358 273.85001
-0.54783672 -8.1406431 -2.1359227 273.85001
-0.60918939 -9.0523205 -2.1497345 273.85001
-0.68054873 -10.112692 -2.154381 273.85001
-0.77095336 -11.45607 -2.163317 273.85001
-0.93399322 -13.25697 -2.183439 274.03
-1.1014079 -15.633232 -2.2025535 274.03
-1.3481773 -19.135843 -2.2433345 274.03
-1.6975914 -24.095379 -2.2535584 274.03
-0.35537279 -5.0441122 -2.1121178 274.03
-0.38035023 -5.3986382 -2.1133237 274.03
-0.40892252 -5.8041897 -2.1177888 274.03
-0.44169557 -6.2693658 -2.123656 274.03
-0.47780415 -6.7818861 -2.121464 274.03
-0.52180493 -7.4064269 -2.1290228 274.03
-0.57340854 -8.1388817 -2.1359227 274.03
-0.63762504 -9.0503616 -2.1497345 274.03
-0.71231526 -10.110504 -2.154381 274.03
-0.80611104 -11.441829 -2.1610951 274.03
-0.97346783 -13.256109 -2.1837633 274.20001
-1.1479328 -15.63187 -2.2028317 274.20001
-1.7676178 -24.070375 -2.2517004 274.20001
-2.4729278 -33.67487 -2.3611171 274.20001
-0.37006706 -5.0393548 -2.1105762 274.20001
-0.3963666 -5.3974862 -2.1133237 274.20001
-0.42586678 -5.799202 -2.1164207 274.20001
-0.46043393 -6.269917 -2.1242964 274.20001
-0.49820393 -6.7842464 -2.1226554 274.20001
-0.54391867 -7.4067631 -2.1295743 274.20001
-0.59783792 -8.1410036 -2.1369357 274.20001
-0.6644752 -9.0484304 -2.1497345 274.20001
-0.74231052 -10.108346 -2.154381 274.20001
-0.84034389 -11.443307 -2.1618359 274.20001
-1.0127952 -13.253162 -2.1837633 274.37
-1.1940066 -15.624446 -2.202275 274.37
-1.4638264 -19.155235 -2.2465868 274.37
-1.8394834 -24.070982 -2.2522578 274.37
-2.5728321 -33.667385 -2.3611171 274.37
-0.38501748 -5.0382342 -2.1105762 274.37
-0.41280538 -5.4018593 -2.1155062 274.37
-0.44307145 -5.7979131 -2.1164207 274.37
-0.47773573 -6.2515202 -2.1185343 274.37
-0.5181855 -6.7808352 -2.1220596 274.37
-0.56589258 -7.405117 -2.1295743 274.37
-0.62154782 -8.1334066 -2.1354163 274.37
-0.69131947 -9.0464191 -2.1497345 274.37
-0.77259743 -10.110001 -2.1552126 274.37
-0.87444288 -11.442722 -2.1622062 274.37
-1.0521135 -13.250099 -2.1837633 274.54001
-1.2406734 -15.624784 -2.2028317 274.54001
-1.5197111 -19.138926 -2.245193 274.54001
-1.9126291 -24.087254 -2.2543015 274.54001
-2.6700292 -33.625793 -2.3587453 274.54001
-0.40040275 -5.0425892 -2.1128886 274.54001
-0.4286837 -5.3987532 -2.1147785 274.54001
-0.460421 -5.7984462 -2.1171048 274.54001
-0.49628222 -6.2500753 -2.1185343 274.54001
-0.5383023 -6.7792678 -2.1220596 274.54001
-0.58816582 -7.407238 -2.1306767 274.54001
-0.64613682 -8.1373129 -2.1369357 274.54001
-0.71846575 -9.0482082 -2.1506567 274.54001
-0.80197155 -10.099863 -2.1535492 274.54001
-0.90807909 -11.436159 -2.1614656 274.54001
-1.0929227 -13.236895 -2.182142 274.72
-1.2900798 -15.624756 -2.2033885 274.72
-1.5814649 -19.153854 -2.2475159 274.72
-1.9884558 -24.083111 -2.2544873 274.72
-2.7791018 -33.658993 -2.3616753 274.72
-0.41593879 -5.0376277 -2.111347 274.72
-0.44548893 -5.3955231 -2.1140511 274.72
-0.4784804 -5.7950983 -2.1164207 274.72
-0.51700634 -6.2617035 -2.1230159 274.72
-0.55944026 -6.7756405 -2.121464 274.72
-0.61111701 -7.4015217 -2.1295743 274.72
-0.67153847 -8.1333141 -2.1364293 274.72
-0.74656767 -9.0420275 -2.1497345 274.72
-0.8336972 -10.097294 -2.1535492 274.72
-0.94384056 -11.431291 -2.1610951 274.72
-1.1298828 -13.23379 -2.182142 274.88
-1.3335389 -15.619119 -2.2031102 274.88
-1.6334254 -19.13155 -2.2454252 274.88
-2.0555313 -24.07548 -2.2543015 274.88
-2.8691809 -33.605381 -2.3584664 274.88
-0.42969087 -5.0327692 -2.1098051 274.88
-0.46071282 -5.3961143 -2.1147785 274.88
-0.49450162 -5.7918668 -2.1157367 274.88
-0.53400671 -6.2545719 -2.1210952 274.88
-0.57852161 -6.7759538 -2.1220596 274.88
-0.63227421 -7.4055333 -2.131228 274.88
-0.69457752 -8.1352625 -2.1374424 274.88
-0.77181482 -9.0399075 -2.1497345 274.88
-0.86239016 -10.100774 -2.1547968 274.88
-0.97575903 -11.428611 -2.1610951 274.88
-1.1711042 -13.226244 -2.1814938 275.06
-1.3826011 -15.614853 -2.2031102 275.06
-1.6940464 -19.132261 -2.2461221 275.06
-2.1299269 -24.055019 -2.253001 275.06
-2.974565 -33.594212 -2.3583269 275.06
-0.44615072 -5.0387473 -2.1128886 275.06
-0.47766289 -5.3946404 -2.1147785 275.06
-0.51302636 -5.7940288 -2.1171048 275.06
-0.55331916 -6.2490888 -2.1198146 275.06
-0.59896404 -6.7645941 -2.119081 275.06
-0.65485793 -7.3958502 -2.1290228 275.06
-0.71979046 -8.1291866 -2.1364293 275.06
-0.79918075 -9.0258064 -2.1469679 275.06
-0.89394581 -10.096066 -2.154381 275.06
-1.0118315 -11.427446 -2.1614656 275.06
-1.2116014 -13.236468 -2.1837633 275.23001
-1.4294667 -15.616598 -2.2039452 275.23001
-1.7502621 -19.121216 -2.2454252 275.23001
-2.2018347 -24.054543 -2.2535584 275.23001
-3.0778651 -33.624977 -2.3611171 275.23001
-0.46059433 -5.031888 -2.1105762 275.23001
-0.49332735 -5.3894892 -2.1133237 275.23001
-0.52987266 -5.7887383 -2.1157367 275.23001
-0.57220352 -6.251193 -2.1210952 275.23001
-0.61920637 -6.7646885 -2.1196766 275.23001
-0.6766237 -7.3919601 -2.1284716 275.23001
-0.74373066 -8.1250877 -2.1359227 275.23001
-0.82702172 -9.0350237 -2.1497345 275.23001
-0.92354083 -10.089473 -2.1535492 275.23001
-1.0460913 -11.428308 -2.1622062 275.23001
-1.2524346 -13.224738 -2.1824663 275.41
-1.4785206 -15.612031 -2.2039452 275.41
-1.8112609 -19.125511 -2.2465868 275.41
-2.2779565 -24.053453 -2.2541156 275.41
-3.1844263 -33.625072 -2.3618147 275.41
-0.47640017 -5.030416 -2.1105762 275.41
-0.51043212 -5.3897672 -2.1140511 275.41
-0.54823309 -5.7889161 -2.1164207 275.41
-0.59130347 -6.2437057 -2.1191745 275.41
-0.6408152 -6.7665114 -2.1208682 275.41
-0.69966161 -7.3878837 -2.1279204 275.41
-0.76907027 -8.1207848 -2.1354163 275.41
-0.85540193 -9.0323811 -2.1497345 275.41
-0.95541763 -10.08847 -2.1539652 275.41
-1.0818038 -11.423009 -2.1618359 275.41
-1.2905095 -13.232974 -2.1844118 275.57001
-1.5217273 -15.603898 -2.2033885 275.57001
-1.863891 -19.112469 -2.2456577 275.57001
-2.3435712 -24.031143 -2.2526295 275.57001
-0.49116236 -5.0364132 -2.1136594 275.57001
-0.52530032 -5.3864665 -2.1133237 275.57001
-0.56476146 -5.7911034 -2.1177888 275.57001
-0.60873681 -6.2420301 -2.1191745 275.57001
-0.65970832 -6.7646952 -2.1208682 275.57001
-0.72103614 -7.3935552 -2.1301255 275.57001
-0.79193252 -8.120532 -2.1359227 275.57001
-0.88024396 -9.026083 -2.1488123 275.57001
-0.98377609 -10.087708 -2.154381 275.57001
-1.1140802 -11.423856 -2.1625764 275.57001
-1.3295693 -13.227123 -2.1840875 275.73999
-1.5670278 -15.589461 -2.2019968 275.73999
-1.9219813 -19.120691 -2.2472837 275.73999
-2.4150617 -24.026066 -2.2528152 275.73999
-3.3788371 -33.614113 -2.3623726 275.73999
-0.50518066 -5.0257525 -2.1098051 275.73999
-0.54090732 -5.3811769 -2.1118686 275.73999
-0.58156556 -5.7856622 -2.1164207 275.73999
-0.62744409 -6.2420816 -2.1198146 275.73999
-0.67977667 -6.7627082 -2.1208682 275.73999
-0.74316233 -7.3932962 -2.1306767 275.73999
-0.81621659 -8.1200714 -2.1364293 275.73999
-0.90702099 -9.0234318 -2.1488123 275.73999
-1.0135069 -10.082799 -2.1539652 275.73999
-1.148167 -11.422456 -2.1629467 275.73999
-1.3688779 -13.201288 -2.180521 275.92001
-1.6172214 -15.596282 -2.2036669 275.92001
-1.9797875 -19.092823 -2.2447283 275.92001
-2.4915569 -24.028263 -2.2537441 275.92001
-0.52153802 -5.0296478 -2.1121178 275.92001
-0.55838656 -5.3850102 -2.1140511 275.92001
-0.59973884 -5.7838068 -2.1164207 275.92001
-0.64685559 -6.2381949 -2.1191745 275.92001
-0.70042819 -6.7548423 -2.119081 275.92001
-0.76698023 -7.3966618 -2.1323307 275.92001
-0.84132338 -8.1136179 -2.1354163 275.92001
-0.93596655 -9.0263453 -2.1501956 275.92001
-1.0453796 -10.081511 -2.154381 275.92001
-1.184046 -11.418793 -2.1629467 275.92001
-1.4082502 -13.199131 -2.1808453 276.09
-1.6618084 -15.57566 -2.2014401 276.09
-2.037482 -19.096741 -2.2458899 276.09
-2.5632615 -24.024725 -2.2541156 276.09
-0.53645897 -5.0280781 -2.1121178 276.09
-0.57455939 -5.3851824 -2.1147785 276.09
-0.61629891 -5.7763953 -2.1143684 276.09
-0.66536182 -6.2362485 -2.1191745 276.09
-0.7212773 -6.7603278 -2.121464 276.09
-0.78790331 -7.3847952 -2.1295743 276.09
-0.86539322 -8.1110859 -2.1354163 276.09
-0.96253765 -9.0215931 -2.1497345 276.09
-1.0748724 -10.074474 -2.1535492 276.09
-1.217921 -11.415229 -2.1629467 276.09
-1.4518648 -13.214259 -2.1840875 276.26999
-1.7126791 -15.58808 -2.2039452 276.26999
-2.0970321 -19.086298 -2.2454252 276.26999
-2.6393771 -24.022491 -2.254673 276.26999
-0.55184937 -5.0226994 -2.1105762 276.26999
-0.59147453 -5.3833508 -2.1147785 276.26999
-0.6346482 -5.776299 -2.1150525 276.26999
-0.68515724 -6.2360106 -2.1198146 276.26999
-0.74167782 -6.7504373 -2.119081 276.26999
-0.81109941 -7.3822832 -2.1295743 276.26999
-0.89087063 -8.1083269 -2.1354163 276.26999
-0.99066246 -9.0165901 -2.1492734 276.26999
-1.1067306 -10.072992 -2.1539652 276.26999
-1.2537769 -11.411346 -2.1629467 276.26999
-1.4898654 -13.219958 -2.1857088 276.42999
-1.7562026 -15.583237 -2.2039452 276.42999
-2.1496553 -19.074446 -2.2447283 276.42999
-2.7064502 -24.015028 -2.254673 276.42999
-0.56607991 -5.0229726 -2.111347 276.42999
-0.60629672 -5.3798265 -2.1140511 276.42999
-0.65119714 -5.7782393 -2.1164207 276.42999
-0.70214438 -6.2303076 -2.1185343 276.42999
-0.76095331 -6.7521343 -2.1202724 276.42999
-0.83171147 -7.3799896 -2.1295743 276.42999
-0.91394323 -8.1096535 -2.1364293 276.42999
-1.0162735 -9.0176563 -2.1501956 276.42999
-1.1346363 -10.067919 -2.1535492 276.42999
-1.2858586 -11.409754 -2.163317 276.42999
-1.5311625 -13.213252 -2.1853845 276.60999
-1.80515 -15.577642 -2.2039452 276.60999
-2.2088828 -19.061678 -2.2440314 276.60999
-2.7816529 -24.004429 -2.2544873 276.60999
-3.8723013 -33.416241 -2.3523278 276.60999
-0.5818572 -5.0211692 -2.111347 276.60999
-0.62319493 -5.3778954 -2.1140511 276.60999
-0.66934675 -5.776165 -2.1164207 276.60999
-0.72193205 -6.2299528 -2.1191745 276.60999
-0.78150266 -6.7440209 -2.1184852 276.60999
-0.85489225 -7.3773403 -2.1295743 276.60999
-0.93919319 -8.1048203 -2.1359227 276.60999
-1.0441502 -9.0105524 -2.1492734 276.60999
-1.1664851 -10.066248 -2.1539652 276.60999
-1.3226019 -11.413467 -2.1647983 276.60999
-1.5685202 -13.212845 -2.186033 276.76999
-1.848177 -15.568607 -2.2033885 276.76999
-2.2628069 -19.061354 -2.2447283 276.76999
-2.8482056 -23.992613 -2.2541156 276.76999
-0.59631181 -5.02319 -2.1128886 276.76999
-0.63843 -5.377984 -2.1147785 276.76999
-0.68503112 -5.7705407 -2.1150525 276.76999
-0.73932654 -6.2279124 -2.1191745 276.76999
-0.80078262 -6.745604 -2.1196766 276.76999
-0.87526369 -7.3730149 -2.1290228 276.76999
-0.9622786 -8.1060085 -2.1369357 276.76999
-1.0688494 -9.0037365 -2.1483512 276.76999
-1.1943601 -10.061008 -2.1535492 276.76999
-1.3528473 -11.396068 -2.1622062 276.76999
-1.6088277 -13.198056 -2.1844118 276.95001
-1.897078 -15.562725 -2.2033885 276.95001
-2.3219576 -19.048235 -2.2440314 276.95001
-2.9238074 -23.985523 -2.2543015 276.95001
-0.61141968 -5.0157962 -2.1105762 276.95001
-0.65464598 -5.3704042 -2.1125963 276.95001
-0.7036112 -5.7720914 -2.1164207 276.95001
-0.76026404 -6.2368441 -2.1230159 276.95001
-0.82197052 -6.7430549 -2.1196766 276.95001
-0.89888757 -7.3740458 -2.1301255 276.95001
-0.98727131 -8.0991039 -2.1359227 276.95001
-1.0978367 -9.0061293 -2.1497345 276.95001
-1.2266719 -10.063032 -2.1547968 276.95001
-1.3888803 -11.393712 -2.1625764 276.95001
-1.6477354 -13.191267 -2.1840875 277.12
-1.9427541 -15.553097 -2.2028317 277.12
-2.3792031 -19.047174 -2.2447283 277.12
-2.994714 -23.974766 -2.2541156 277.12
-4.1683517 -33.370552 -2.3516302 277.12
-0.62721413 -5.0212851 -2.1136594 277.12
-0.67150104 -5.3758326 -2.1155062 277.12
-0.7205013 -5.7681136 -2.1157367 277.12
-0.77735668 -6.22328 -2.1191745 277.12
-0.84268385 -6.7462702 -2.121464 277.12
-0.92028624 -7.3675308 -2.1290228 277.12
-1.0120169 -8.1018991 -2.1374424 277.12
-1.1235887 -8.9951086 -2.1478901 277.12
-1.2560391 -10.055466 -2.1539652 277.12
-1.4234107 -11.395391 -2.1636875 277.12
-1.6883699 -13.198065 -2.186033 277.29001
-1.9883898 -15.543335 -2.202275 277.29001
-2.4352026 -19.036091 -2.2442639 277.29001
-3.0658352 -23.965775 -2.2541156 277.29001
-4.2792439 -33.45105 -2.3581874 277.29001
-0.64070475 -5.0084186 -2.1090343 277.29001
-0.68626648 -5.3645768 -2.1118686 277.29001
-0.73689699 -5.7603579 -2.1136844 277.29001
-0.79581803 -6.2209463 -2.1191745 277.29001
-0.86148542 -6.734271 -2.1184852 277.29001
-0.94262999 -7.3685818 -2.1301255 277.29001
-1.0355603 -8.0950222 -2.1364293 277.29001
-1.1517544 -9.0033169 -2.1506567 277.29001
-1.2863653 -10.055576 -2.1547968 277.29001
-1.4572152 -11.391118 -2.1636875 277.29001
-1.7303376 -13.196609 -2.1866815 277.47
-2.0369532 -15.535048 -2.2019968 277.47
-2.4939611 -19.020468 -2.2433345 277.47
-3.1395574 -23.944178 -2.253001 277.47
-4.3837938 -33.433483 -2.3579082 277.47
-0.65811545 -5.0191898 -2.1144302 277.47
-0.70408523 -5.3697834 -2.1147785 277.47
-12.582863 -95.964584 0 277.47
-0.75547868 -5.7617412 -2.1150525 277.47
-0.81486511 -6.2146583 -2.1178939 277.47
-0.88238925 -6.7296386 -2.1178894 277.47
-0.96552444 -7.363678 -2.1295743 277.47
-1.0609864 -8.0917292 -2.1364293 277.47
-1.1790214 -8.9919357 -2.1488123 277.47
-1.3166777 -10.041787 -2.1527176 277.47
-1.4922277 -11.380638 -2.1625764 277.47
-1.7669207 -13.18977 -2.1863573 277.63
-2.0800643 -15.527336 -2.2017186 277.63
-2.5481215 -19.021305 -2.2442639 277.63
-3.2072029 -23.941238 -2.2535584 277.63
-4.4850874 -33.480434 -2.3620937 277.63
-0.67188406 -5.0155029 -2.1136594 277.63
-0.71858299 -5.3641028 -2.1133237 277.63
-0.77181506 -5.7614717 -2.1157367 277.63
-0.83271968 -6.2161145 -2.1191745 277.63
-0.90168548 -6.7309327 -2.119081 277.63
-0.98608387 -7.3609529 -2.1295743 277.63
-1.0838355 -8.0906525 -2.1369357 277.63
-1.2043854 -8.9905376 -2.1492734 277.63
-1.3454937 -10.043888 -2.1539652 277.63
-1.5247854 -11.382271 -2.1636875 277.63
-1.807696 -13.162331 -2.1827905 277.82001
-2.1328909 -15.530164 -2.2031102 277.82001
-2.6106439 -19.008814 -2.2437992 277.82001
-3.2860355 -23.926527 -2.2531867 277.82001
-4.5830579 -33.370502 -2.355397 277.82001
-0.68725687 -5.004106 -2.1098051 277.82001
-0.73662055 -5.3635364 -2.1140511 277.82001
-0.79091656 -5.7588806 -2.1157367 277.82001
-0.85281283 -6.2095647 -2.1178939 277.82001
-0.92478043 -6.7335801 -2.1208682 277.82001
-1.0104883 -7.3576427 -2.1295743 277.82001
-1.1101326 -8.0831795 -2.1359227 277.82001
-1.2344573 -8.9884224 -2.1497345 277.82001
-1.3795916 -10.045185 -2.1552126 277.82001
-1.5619872 -11.373258 -2.1629467 277.82001
-1.8447191 -13.159186 -2.1831148 277.98001
-2.1746011 -15.512379 -2.2014401 277.98001
-2.6637163 -19.00145 -2.2437992 277.98001
-3.3522851 -23.913313 -2.2528152 277.98001
-4.6911845 -33.464268 -2.3629308 277.98001
-0.7022531 -5.0094776 -2.1128886 277.98001
-0.75185412 -5.3633032 -2.1147785 277.98001
-0.80647343 -5.7529273 -2.1143684 277.98001
-0.87120205 -6.2146645 -2.120455 277.98001
-0.94252026 -6.7234082 -2.1184852 277.98001
-1.0307639 -7.3528881 -2.1290228 277.98001
-1.1329693 -8.0819645 -2.1364293 277.98001
-1.2592826 -8.9830122 -2.1492734 277.98001
-1.4070945 -10.037418 -2.154381 277.98001
-1.5934683 -11.366904 -2.1625764 277.98001
-1.8834752 -13.151701 -2.1827905 278.14999
-2.2203369 -15.503898 -2.2011619 278.14999
-2.7198012 -18.991497 -2.243567 278.14999
-3.4280217 -23.936771 -2.2559736 278.14999
-4.7961111 -33.4897 -2.365721 278.14999
-0.71711338 -5.0073719 -2.1128886 278.14999
-0.7667076 -5.353672 -2.1118686 278.14999
-0.82460487 -5.7579508 -2.1171048 278.14999
-0.88936889 -6.2101765 -2.1198146 278.14999
-0.96246487 -6.7205825 -2.1184852 278.14999
-1.0531209 -7.3536038 -2.1301255 278.14999
-1.1566696 -8.0766516 -2.1359227 278.14999
-1.2851025 -8.9734573 -2.1478901 278.14999
-1.4374245 -10.037072 -2.1552126 278.14999
-1.6263516 -11.35629 -2.1614656 278.14999
-1.9219176 -13.142149 -2.182142 278.32001
-2.2663281 -15.497242 -2.2011619 278.32001
-2.7784376 -18.999067 -2.2454252 278.32001
-3.4938416 -23.891027 -2.2526295 278.32001
-4.869473 -33.297653 -2.3531649 278.32001
-0.73276854 -5.0107002 -2.1152012 278.32001
-0.78312802 -5.3550606 -2.1133237 278.32001
-0.84168541 -5.7554784 -2.1171048 278.32001
-0.90751672 -6.2056355 -2.1191745 278.32001
-0.98212469 -6.7158079 -2.1178894 278.32001
-1.0746565 -7.3485441 -2.1295743 278.32001
-1.1806284 -8.073184 -2.1359227 278.32001
-1.3117216 -8.9696045 -2.1478901 278.32001
-1.4669156 -10.030828 -2.1547968 278.32001
-1.6606081 -11.355304 -2.1622062 278.32001
-1.9620681 -13.144197 -2.183439 278.48999
-2.3122993 -15.490449 -2.2011619 278.48999
-2.8318639 -18.971094 -2.2431023 278.48999
-3.5685341 -23.90616 -2.2550447 278.48999
-4.9956412 -33.466572 -2.3661397 278.48999
-0.74681491 -5.0030284 -2.1128886 278.48999
-0.79928833 -5.3545561 -2.1140511 278.48999
-0.85792613 -5.7473793 -2.1150525 278.48999
-0.9259252 -6.2029157 -2.1191745 278.48999
-1.0026103 -6.7166409 -2.119081 278.48999
-1.0958877 -7.3415203 -2.1284716 278.48999
-1.2048625 -8.0715599 -2.1364293 278.48999
-1.3377545 -8.9618235 -2.1469679 278.48999
-1.4972489 -10.030301 -2.1556284 278.48999
-1.6948729 -11.354215 -2.1629467 278.48999
-2.0033519 -13.137968 -2.183439 278.67001
-2.3606539 -15.481151 -2.2008834 278.67001
-2.89115 -18.96014 -2.2428701 278.67001
-3.6418188 -23.88302 -2.2539299 278.67001
-5.084815 -33.346176 -2.3587453 278.67001
-0.76252872 -5.0006576 -2.1128886 278.67001
-0.81666791 -5.3557019 -2.1155062 278.67001
-0.87654442 -5.7483716 -2.1164207 278.67001
-0.94483638 -6.1962299 -2.1178939 278.67001
-1.0231307 -6.7096829 -2.1178894 278.67001
-1.1192361 -7.339942 -2.1290228 278.67001
-1.2299224 -8.0658216 -2.1359227 278.67001
-1.3673691 -8.9671965 -2.1492734 278.67001
-1.5266882 -10.01201 -2.1527176 278.67001
-1.7299422 -11.344948 -2.1622062 278.67001
-2.042021 -13.130015 -2.1831148 278.84
-2.40749 -15.479949 -2.2017186 278.84
-2.9467824 -18.947552 -2.2424054 278.84
-3.7145011 -23.883915 -2.2550447 278.84
-5.2030482 -33.455143 -2.3675346 278.84
-0.77736259 -4.998373 -2.1128886 278.84
-0.83198237 -5.3495736 -2.1140511 278.84
-0.89301866 -5.7420316 -2.1150525 278.84
-0.96409029 -6.1990161 -2.1198146 278.84
-1.0442077 -6.7141643 -2.1202724 278.84
-1.1410092 -7.3365889 -2.1290228 278.84
-1.254146 -8.0640488 -2.1364293 278.84
-1.3942683 -8.965023 -2.1497345 278.84
-1.5572896 -10.013235 -2.1539652 278.84
-1.7638978 -11.341707 -2.1625764 278.84
-2.0829506 -13.121587 -2.1827905 279.01999
-2.4545572 -15.462529 -2.2003267 279.01999
-3.006916 -18.942125 -2.2428701 279.01999
-3.7863941 -23.852461 -2.2531867 279.01999
-5.313755 -33.474102 -2.3700459 279.01999
-0.79306155 -4.9959064 -2.1128886 279.01999
-0.84878439 -5.3469334 -2.1140511 279.01999
-0.91134799 -5.7410541 -2.1157367 279.01999
-0.98296618 -6.192214 -2.1185343 279.01999
-1.064697 -6.7070794 -2.119081 279.01999
-1.1640521 -7.3329682 -2.1290228 279.01999
-1.2800804 -8.0638905 -2.1374424 279.01999
-1.4218156 -8.9567547 -2.1488123 279.01999
-1.5890461 -10.010225 -2.154381 279.01999
-1.7998282 -11.338051 -2.1629467 279.01999
-2.1195848 -13.115719 -2.1827905 279.17999
-2.4977272 -15.455615 -2.2003267 279.17999
-3.0591669 -18.929731 -2.2424054 279.17999
-3.852988 -23.841795 -2.2531867 279.17999
-5.4183521 -33.528069 -2.374929 279.17999
-0.80848175 -5.0027814 -2.1167428 279.17999
-0.86311811 -5.3408642 -2.1125963 279.17999
-0.92707664 -5.7366314 -2.1150525 279.17999
-1.0002543 -6.189445 -2.1185343 279.17999
-1.0828134 -6.7003102 -2.1178894 279.17999
-1.1842183 -7.3277907 -2.1284716 279.17999
-1.3022853 -8.0583744 -2.1369357 279.17999
-1.447443 -8.9565916 -2.1497345 279.17999
-1.6163695 -10.001886 -2.1535492 279.17999
-1.8311694 -11.33104 -2.1625764 279.17999
-2.1584907 -13.109372 -2.1827905 279.35001
-2.5438955 -15.450089 -2.2006052 279.35001
-3.1130598 -18.906851 -2.2407792 279.35001
-3.9217696 -23.818468 -2.2520721 279.35001
-5.5210495 -33.531528 -2.3763239 279.35001
-0.82182258 -4.9912558 -2.1128886 279.35001
-0.87956631 -5.3419561 -2.1140511 279.35001
-0.94287211 -5.7264376 -2.1123164 279.35001
-1.0192299 -6.1901889 -2.1198146 279.35001
-1.1042397 -6.7064872 -2.1208682 279.35001
-1.2062674 -7.3261418 -2.1290228 279.35001
-1.324932 -8.0468388 -2.1349096 279.35001
-1.4736952 -8.9503365 -2.1492734 279.35001
-1.646992 -10.002838 -2.1547968 279.35001
-1.8635038 -11.317801 -2.1610951 279.35001
-2.1950903 -13.103293 -2.1827905 279.51001
-2.586376 -15.439019 -2.2000484 279.51001
-3.1642046 -18.888288 -2.2396178 279.51001
-3.985965 -23.793676 -2.2507715 279.51001
-5.614995 -33.517948 -2.3764637 279.51001
-0.83575761 -4.9889412 -2.1128886 279.51001
-0.89478821 -5.3413162 -2.1147785 279.51001
-0.95979118 -5.7293429 -2.1143684 279.51001
-1.0380775 -6.1966624 -2.1230159 279.51001
-1.1223326 -6.6996117 -2.1196766 279.51001
-1.2267212 -7.3227448 -2.1290228 279.51001
-1.3483567 -8.0488319 -2.1364293 279.51001
-1.4993265 -8.9500256 -2.1501956 279.51001
-1.6729795 -9.9866228 -2.1523018 279.51001
-1.8954265 -11.31449 -2.1614656 279.51001
-2.2378654 -13.092052 -2.182142 279.70001
-2.6395614 -15.442071 -2.2017186 279.70001
-3.2298353 -18.895315 -2.2417085 279.70001
-4.0708852 -23.815659 -2.2541156 279.70001
-0.85105312 -4.9788661 -2.1098051 279.70001
-0.91218185 -5.3364835 -2.1140511 279.70001
-0.9781518 -5.7224236 -2.1130004 279.70001
-1.0567051 -6.1819797 -2.1191745 279.70001
-1.1448648 -6.6977348 -2.1202724 279.70001
-1.2503496 -7.3148465 -2.1279204 279.70001
-1.3747143 -8.0424099 -2.1359227 279.70001
-1.5289975 -8.9450045 -2.1501956 279.70001
-1.707076 -9.986805 -2.1535492 279.70001
-1.9329363 -11.308143 -2.1614656 279.70001
-2.2763619 -13.083409 -2.181818 279.87
-2.6846883 -15.430268 -2.2011619 279.87
-3.2858844 -18.885649 -2.2417085 279.87
-4.1415296 -23.803476 -2.2541156 279.87
-5.8524995 -33.637291 -2.387485 279.87
-0.92769212 -5.3319182 -2.1133237 279.87
-0.99480408 -5.7176447 -2.1123164 279.87
-1.0740684 -6.1732173 -2.1172538 279.87
-1.164405 -6.6924276 -2.1196766 279.87
-1.2723773 -7.3129988 -2.1284716 279.87
-1.3989021 -8.0402012 -2.1364293 279.87
-1.5551976 -8.9385109 -2.1497345 279.87
-1.7370352 -9.9836235 -2.1539652 279.87
-1.9668165 -11.304295 -2.1618359 279.87
-2.3167646 -13.072308 -2.1811695 280.04999
-2.7321138 -15.415908 -2.2003267 280.04999
-3.3413861 -18.853716 -2.2391531 280.04999
-4.2145524 -23.780542 -2.2531867 280.04999
-0.94443822 -5.3289771 -2.1133237 280.04999
-1.0134176 -5.7181921 -2.1136844 280.04999
-1.0944488 -6.1754093 -2.1191745 280.04999
-1.1854241 -6.6887364 -2.1196766 280.04999
-1.2963519 -7.3146443 -2.1301255 280.04999
-1.423479 -8.0319567 -2.1354163 280.04999
-1.5836107 -8.9354973 -2.1501956 280.04999
-1.7680496 -9.9761915 -2.1535492 280.04999
-2.0016344 -11.294189 -2.1610951 280.04999
-2.3572915 -13.075087 -2.1827905 280.22
-2.778193 -15.409683 -2.2006052 280.22
-3.3980162 -18.84763 -2.2396178 280.22
-4.2850919 -23.767933 -2.2531867 280.22
-0.96024543 -5.3261518 -2.1133237 280.22
-1.0307127 -5.71701 -2.1143684 280.22
-1.1131029 -6.1739998 -2.1198146 280.22
-1.2042485 -6.679553 -2.1178894 280.22
-1.3187313 -7.3145499 -2.131228 280.22
-1.4479905 -8.0315065 -2.1364293 280.22
-1.6097705 -8.9288445 -2.1497345 280.22
-1.7966005 -9.965126 -2.1523018 280.22
-2.035136 -11.2882 -2.1610951 280.22
-2.3960757 -13.068035 -2.1827905 280.39001
-2.8228307 -15.395528 -2.19977 280.39001
-3.4532068 -18.833557 -2.2391531 280.39001
-4.3595443 -23.776661 -2.2552304 280.39001
-6.2014341 -33.822205 -2.4045057 280.39001
-0.97604418 -5.3232789 -2.1133237 280.39001
-12.028456 -65.602386 0 280.39001
-1.0480099 -5.715775 -2.1150525 280.39001
-1.1331252 -6.1799884 -2.1230159 280.39001
-1.2247505 -6.6797066 -2.119081 280.39001
-1.3390414 -7.303041 -2.1290228 280.39001
-1.472163 -8.0290775 -2.1369357 280.39001
-1.6359048 -8.9221144 -2.1492734 280.39001
-1.8265125 -9.9616756 -2.1527176 280.39001
-2.0686197 -11.282112 -2.1610951 280.39001
-2.433392 -13.053108 -2.1814938 280.56
-2.8688605 -15.389031 -2.2000484 280.56
-3.5068874 -18.81151 -2.2377594 280.56
-4.4278822 -23.751875 -2.2541156 280.56
-6.3087063 -33.840919 -2.4071565 280.56
-0.99183434 -5.3203597 -2.1133237 280.56
-1.0656531 -5.7163353 -2.1164207 280.56
-1.1497203 -6.1672859 -2.1198146 280.56
-1.2438644 -6.6722894 -2.1178894 280.56
-1.3621132 -7.3065953 -2.131228 280.56
-1.4956247 -8.0227718 -2.1364293 280.56
-1.6627266 -8.9191341 -2.1497345 280.56
-1.8560612 -9.956212 -2.1527176 280.56
-2.1017251 -11.273993 -2.1607249 280.56
-2.4724782 -13.04777 -2.181818 280.73001
-2.9141393 -15.378506 -2.19977 280.73001
-3.5630567 -18.802975 -2.2379916 280.73001
-4.5035262 -23.766024 -2.2567167 280.73001
-6.4187446 -33.87302 -2.4107838 280.73001
-1.0072689 -5.3155632 -2.1125963 280.73001
-1.0826091 -5.7131486 -2.1164207 280.73001
-1.1666028 -6.1564007 -2.1172538 280.73001
-1.2629451 -6.6648178 -2.116698 280.73001
-1.3823546 -7.2949662 -2.1290228 280.73001
-1.5197823 -8.0201998 -2.1369357 280.73001
-1.6884582 -8.9103374 -2.1488123 280.73001
-1.8852295 -9.9487391 -2.1523018 280.73001
-2.1348004 -11.265777 -2.1603546 280.73001
-2.5096502 -13.04469 -2.1824663 280.89001
-2.9563243 -15.366418 -2.1992133 280.89001
-3.6174269 -18.802704 -2.2391531 280.89001
-4.5676188 -23.741623 -2.2556019 280.89001
-6.5106721 -33.841248 -2.4098072 280.89001
-1.0224608 -5.314559 -2.1133237 280.89001
-1.0978489 -5.7064118 -2.1150525 280.89001
-1.1848642 -6.1587009 -2.1191745 280.89001
-1.2808304 -6.6575155 -2.1155064 280.89001
-1.4023573 -7.2891898 -2.1284716 280.89001
-1.5414419 -8.012125 -2.1359227 280.89001
-1.7122309 -8.8998547 -2.147429 280.89001
-1.9137434 -9.947278 -2.1531334 280.89001
-2.167366 -11.265561 -2.1614656 280.89001
-2.5491033 -13.028995 -2.1811695 281.07001
-3.0042045 -15.355111 -2.198935 281.07001
-3.6734281 -18.775652 -2.2372947 281.07001
-4.643712 -23.734974 -2.256345 281.07001
-6.6295967 -33.885242 -2.4144111 281.07001
-1.0387942 -5.3094921 -2.1125963 281.07001
-1.1150489 -5.6992459 -2.1136844 281.07001
-1.2056617 -6.1623859 -2.1217353 281.07001
-1.3032056 -6.6609535 -2.1178894 281.07001
-1.4259883 -7.2885218 -2.1295743 281.07001
-1.5669765 -8.0091419 -2.1364293 281.07001
-1.7409295 -8.8982515 -2.1483512 281.07001
-1.9442329 -9.937377 -2.1523018 281.07001
-2.2031245 -11.260626 -2.1618359 281.07001
-2.5904074 -13.022858 -2.1814938 281.25
-3.0516562 -15.341713 -2.1983783 281.25
-3.7316203 -18.760122 -2.2368302 281.25
-4.7186432 -23.722219 -2.256531 281.25
-6.7511973 -33.940563 -2.419852 281.25
-1.0558327 -5.3080297 -2.1133237 281.25
-1.1333147 -5.6975579 -2.1143684 281.25
-1.2231671 -6.1492763 -2.1185343 281.25
-1.32487 -6.6605716 -2.119081 281.25
-1.4488789 -7.2840056 -2.1295743 281.25
-1.5917528 -8.0022821 -2.1359227 281.25
-1.7688756 -8.8927383 -2.1483512 281.25
-1.9758241 -9.9331388 -2.1527176 281.25
-2.2384899 -11.253649 -2.1618359 281.25
-2.6278632 -13.009311 -2.180521 281.42001
-3.0955942 -15.324825 -2.1972649 281.42001
-3.7880528 -18.752861 -2.2372947 281.42001
-4.7763901 -23.645655 -2.2505858 281.42001
-6.8577967 -33.949715 -2.4219449 281.42001
-1.0708396 -5.3012214 -2.1118686 281.42001
-1.1498426 -5.692328 -2.1136844 281.42001
-1.2429076 -6.153049 -2.1210952 281.42001
-1.3442484 -6.6547399 -2.1184852 281.42001
-1.4704845 -7.279675 -2.1295743 281.42001
-1.6158721 -7.9994202 -2.1364293 281.42001
-1.795253 -8.8874502 -2.1483512 281.42001
-2.0049002 -9.9253149 -2.1523018 281.42001
-2.2710919 -11.243104 -2.1610951 281.42001
-2.6660545 -12.999523 -2.1801968 281.59
-3.1406522 -15.313633 -2.1969867 281.59
-3.844475 -18.745432 -2.2377594 281.59
-4.8657308 -23.725014 -2.2595034 281.59
-6.97894 -34.028896 -2.42906 281.59
-1.0869381 -5.2998457 -2.1125963 281.59
-1.1682373 -5.6962557 -2.1164207 281.59
-1.2603972 -6.1456218 -2.1198146 281.59
-1.3647547 -6.6544623 -2.1196766 281.59
-1.4924635 -7.277163 -2.1301255 281.59
-1.6395997 -7.9945908 -2.1364293 281.59
-1.8212237 -8.8801785 -2.1478901 281.59
-2.0347333 -9.9212389 -2.1527176 281.59
-2.3028615 -11.228615 -2.1596141 281.59
-2.704757 -13.00362 -2.182142 281.75
-3.1834035 -15.304803 -2.1969867 281.75
-3.895189 -18.726843 -2.2368302 281.75
-4.9339919 -23.721083 -2.2604322 281.75
-1.1009752 -5.2931418 -2.1111412 281.75
-1.1833743 -5.689291 -2.1150525 281.75
-1.2775542 -6.1420784 -2.1198146 281.75
-1.3844985 -6.6562333 -2.121464 281.75
-1.5135623 -7.2767315 -2.131228 281.75
-1.6623124 -7.9918752 -2.1369357 281.75
-1.8472036 -8.8807735 -2.1492734 281.75
-2.0620325 -9.9136028 -2.1523018 281.75
-2.3346088 -11.224065 -2.1599844 281.75
-2.7435558 -12.985405 -2.180521 281.92999
-3.2306504 -15.290851 -2.19643 281.92999
-3.9507167 -18.698965 -2.2349718 281.92999
-5.002315 -23.676239 -2.2576456 281.92999
-1.1187539 -5.2951255 -2.1133237 281.92999
-1.2020189 -5.6892228 -2.1164207 281.92999
-1.296452 -6.1361804 -2.1191745 281.92999
-1.4042188 -6.6462469 -2.1196766 281.92999
-1.5352231 -7.2662973 -2.1295743 281.92999
-1.6862115 -7.9809341 -2.1354163 281.92999
-1.8738874 -8.869215 -2.1478901 281.92999
-2.0927622 -9.9051619 -2.151886 281.92999
-2.3706713 -11.220521 -2.1607249 281.92999
-2.7820721 -12.977207 -2.180521 282.10001
-3.2755899 -15.279262 -2.1961515 282.10001
-4.0086784 -18.698814 -2.2363656 282.10001
-5.0875688 -23.731388 -2.2643337 282.10001
-1.1340694 -5.2899609 -2.1125963 282.10001
-1.2181059 -5.6819563 -2.1150525 282.10001
-1.3154471 -6.1360121 -2.120455 282.10001
-1.4227318 -6.6364508 -2.1178894 282.10001
-1.5567758 -7.2617106 -2.1295743 282.10001
-1.7098839 -7.9758959 -2.1354163 282.10001
-1.9006025 -8.8655186 -2.1483512 282.10001
-2.1217322 -9.8969965 -2.1514702 282.10001
-2.4031286 -11.209594 -2.1599844 282.10001
-2.819725 -12.965038 -2.1798725 282.26999
-3.3196471 -15.263669 -2.1953166 282.26999
-4.0628748 -18.681015 -2.2356687 282.26999
-5.1643066 -23.745377 -2.2671206 282.26999
-1.1501559 -5.2883935 -2.1133237 282.26999
-1.2329621 -5.6691346 -2.1116323 282.26999
-1.3324391 -6.1265278 -2.1185343 282.26999
-1.4440392 -6.6396627 -2.1202724 282.26999
-1.5774977 -7.2533021 -2.1284716 282.26999
-1.7339525 -7.9726782 -2.1359227 282.26999
-1.9260714 -8.8560371 -2.147429 282.26999
-2.1519191 -9.8944807 -2.1523018 282.26999
-2.4372129 -11.206255 -2.1607249 282.26999
-2.8581808 -12.956615 -2.1798725 282.44
-3.3653474 -15.255687 -2.1955948 282.44
-4.1195683 -18.674698 -2.2363656 282.44
-5.2407436 -23.757174 -2.2697215 282.44
-1.1654404 -5.2831383 -2.1125963 282.44
-1.2489676 -5.6617808 -2.1102643 282.44
-1.3518355 -6.128098 -2.120455 282.44
-1.4624993 -6.6297555 -2.1184852 282.44
-1.59984 -7.2523446 -2.1295743 282.44
-1.7571836 -7.9656091 -2.1354163 282.44
-1.9527586 -8.8521833 -2.1478901 282.44
-2.1812673 -9.888052 -2.1523018 282.44
-2.4704518 -11.198975 -2.1607249 282.44
-2.8975773 -12.941794 -2.1788998 282.62
-3.4128251 -15.243106 -2.1953166 282.62
-4.1782165 -18.661663 -2.2363656 282.62
-5.3227491 -23.773628 -2.2728798 282.62
-7.6710272 -34.26202 -2.4551489 282.62
-1.1824392 -5.2812691 -2.1133237 282.62
-1.2688016 -5.6669993 -2.1136844 282.62
-1.3698388 -6.1182742 -2.1185343 282.62
-1.48332 -6.6251283 -2.1184852 282.62
-1.6213559 -7.2416544 -2.1279204 282.62
-1.7817768 -7.9581614 -2.1349096 282.62
-1.9797084 -8.842207 -2.1469679 282.62
-2.2123206 -9.8811502 -2.1523018 282.62
-2.5039046 -11.183487 -2.1592438 282.62
-2.9368374 -12.936989 -2.1795483 282.79001
-3.4571602 -15.229051 -2.1947598 282.79001
-4.2326884 -18.645309 -2.2359009 282.79001
-5.3989944 -23.782976 -2.275295 282.79001
-1.1976914 -5.2759204 -2.1125963 282.79001
-1.28353 -5.6540461 -2.1102643 282.79001
-1.3900834 -6.1234217 -2.1217353 282.79001
-1.5021253 -6.6169744 -2.1172936 282.79001
-1.6424096 -7.2349372 -2.1273692 282.79001
-1.8045245 -7.9490662 -2.1338968 282.79001
-2.005935 -8.8362942 -2.1469679 282.79001
-2.2407627 -9.8707275 -2.1514702 282.79001
-2.5379457 -11.179841 -2.1599844 282.79001
-2.9761369 -12.921929 -2.1785755 282.97
-3.5058756 -15.221974 -2.1953166 282.97
-4.2912436 -18.631922 -2.2359009 282.97
-5.4803882 -23.795006 -2.2780819 282.97
-1.2138422 -5.2703161 -2.1118686 282.97
-1.3025517 -5.6554799 -2.1123164 282.97
-1.4067622 -6.1079459 -2.1178939 282.97
-1.5250481 -6.6215253 -2.1202724 282.97
-1.668151 -7.242856 -2.131228 282.97
-1.8303568 -7.9471288 -2.1349096 282.97
-2.034122 -8.8318453 -2.147429 282.97
-2.2726395 -9.8674517 -2.1523018 282.97
-2.5721734 -11.167982 -2.1592438 282.97
-3.0131178 -12.907277 -2.1776028 283.14001
-3.5501242 -15.207647 -2.1947598 283.14001
-4.3442488 -18.609434 -2.2347395 283.14001
-5.560019 -23.817425 -2.2817974 283.14001
-1.2311682 -5.2739487 -2.1147785 283.14001
-1.3197534 -5.6534204 -2.1130004 283.14001
-1.4253094 -6.1055899 -2.1185343 283.14001
-1.5425178 -6.6076751 -2.1172936 283.14001
-1.6870114 -7.2266417 -2.1279204 283.14001
-1.8539283 -7.9416628 -2.1349096 283.14001
-2.058548 -8.8181906 -2.1455846 283.14001
-2.3019068 -9.8606653 -2.1523018 283.14001
-2.6057451 -11.162215 -2.1596141 283.14001
-3.053236 -12.916098 -2.180521 283.29999
-3.5921223 -15.195747 -2.1944814 283.29999
-4.3998547 -18.612696 -2.2365978 283.29999
-5.6301732 -23.817308 -2.2832837 283.29999
-1.2450339 -5.2668638 -2.1133237 283.29999
-1.3364003 -5.6533709 -2.1143684 283.29999
-1.4436615 -6.1071177 -2.120455 283.29999
-1.561403 -6.6051998 -2.1178894 283.29999
-1.7107235 -7.2368698 -2.1323307 283.29999
-1.8769886 -7.9402208 -2.1359227 283.29999
-2.0849557 -8.8199835 -2.147429 283.29999
-2.3280838 -9.8484879 -2.1510544 283.29999
-2.6360013 -11.15107 -2.1588733 283.29999
-3.0928781 -12.902603 -2.1798725 283.48001
-3.6393819 -15.182461 -2.1942031 283.48001
-4.4573803 -18.594917 -2.2361333 283.48001
-5.7114682 -23.826614 -2.2858846 283.48001
-8.2523117 -34.426289 -2.4755177 283.48001
-1.261574 -5.2629266 -2.1133237 283.48001
-1.3528399 -5.643662 -2.1123164 283.48001
-1.4628404 -6.1025524 -2.120455 283.48001
-1.5821462 -6.6002622 -2.1178894 283.48001
-1.7303133 -7.2183728 -2.1284716 283.48001
-1.9005712 -7.9286404 -2.1344032 283.48001
-2.1122005 -8.8114967 -2.1469679 283.48001
-2.3603802 -9.8468323 -2.1523018 283.48001
-2.6719365 -11.146556 -2.1596141 283.48001
-3.1270351 -12.886245 -2.1785755 283.64001
-3.6803639 -15.166465 -2.193368 283.64001
-4.5111637 -18.59012 -2.2370625 283.64001
-5.7887831 -23.855082 -2.2901578 283.64001
-1.2753873 -5.2557621 -2.1118686 283.64001
-1.3703675 -5.6471677 -2.1150525 283.64001
-1.478089 -6.0910783 -2.1178939 283.64001
-1.6014719 -6.5995288 -2.119081 283.64001
-1.7522775 -7.2209859 -2.1306767 283.64001
-1.9240735 -7.9289427 -2.1359227 283.64001
-2.1345038 -8.7961082 -2.1446621 283.64001
-2.3874073 -9.8383017 -2.151886 283.64001
-2.7016628 -11.133322 -2.1585031 283.64001
-3.1679745 -12.878274 -2.1788998 283.82001
-3.7265732 -15.149058 -2.192533 283.82001
-4.5671711 -18.566212 -2.2359009 283.82001
-5.8689299 -23.858047 -2.2922013 283.82001
-1.2910024 -5.2481112 -2.1104138 283.82001
-1.3872039 -5.6391845 -2.1136844 283.82001
-1.4981225 -6.0900846 -2.1191745 283.82001
-1.6208287 -6.5889034 -2.1172936 283.82001
-1.7721988 -7.2042441 -2.1273692 283.82001
-1.9485114 -7.92098 -2.1354163 283.82001
-2.1653812 -8.8025875 -2.1478901 283.82001
-2.417836 -9.8288527 -2.1514702 283.82001
-2.7356868 -11.120962 -2.1577625 283.82001
-3.2074621 -12.864428 -2.1782513 284
-3.7741468 -15.137277 -2.192533 284
-4.6374903 -18.599958 -2.2417085 284
-5.9472251 -23.853018 -2.2935019 284
-1.3092862 -5.2512603 -2.1133237 284
-1.4040037 -5.6311517 -2.1123164 284
-1.517706 -6.0871863 -2.1198146 284
-1.6429061 -6.5893364 -2.119081 284
-1.7948228 -7.1986413 -2.1273692 284
-1.9738542 -7.916697 -2.1359227 284
-2.1925538 -8.7938528 -2.147429 284
-2.4491756 -9.8231068 -2.151886 284
-2.7706108 -11.112312 -2.1577625 284
-3.2428911 -12.853507 -2.177927 284.16
-3.8168879 -15.128598 -2.1928115 284.16
-4.6767783 -18.536856 -2.2356687 284.16
-6.0342722 -23.917412 -2.3013048 284.16
-1.1598669 -4.5972428 -2.1109631 284.16
-1.3239454 -5.2475834 -2.1133237 284.16
-1.4192637 -5.6253867 -2.1116323 284.16
-1.5328447 -6.0755758 -2.1172538 284.16
-1.6613005 -6.5847225 -2.119081 284.16
-1.8149182 -7.1936011 -2.1273692 284.16
-1.9950075 -7.907402 -2.1349096 284.16
-2.21615 -8.7839222 -2.1465068 284.16
-2.4742045 -9.8067446 -2.149807 284.16
-2.8030736 -11.11025 -2.1588733 284.16
-3.2832553 -12.843256 -2.177927 284.34
-3.8624346 -15.108857 -2.1916981 284.34
-4.7300706 -18.502827 -2.2333455 284.34
-6.1103678 -23.902197 -2.3016763 284.34
-1.1720412 -4.5847259 -2.1068959 284.34
-1.3399632 -5.2415934 -2.1125963 284.34
-1.4369293 -5.6209002 -2.1116323 284.34
-1.5528626 -6.0744014 -2.1185343 284.34
-1.6829245 -6.5831704 -2.1202724 284.34
-1.8379848 -7.1897264 -2.1279204 284.34
-2.0203185 -7.9029698 -2.1354163 284.34
-2.2418067 -8.7693748 -2.1446621 284.34
-2.5064545 -9.8046093 -2.1510544 284.34
-2.8360167 -11.093772 -2.1573923 284.34
-3.3191078 -12.834038 -2.177927 284.5
-3.9056032 -15.101847 -2.1922548 284.5
-4.7936583 -18.535702 -2.2389209 284.5
-6.1875615 -23.925526 -2.3055778 284.5
-1.1880419 -4.5938172 -2.1125901 284.5
-1.3550617 -5.2396345 -2.1133237 284.5
-1.4530908 -5.6186852 -2.1123164 284.5
-1.569345 -6.0682073 -2.1178939 284.5
-1.6998675 -6.5728998 -2.1184852 284.5
-1.8575737 -7.1827044 -2.1273692 284.5
-2.0423799 -7.8972974 -2.1354163 284.5
-2.267261 -8.7668486 -2.1455846 284.5
-2.5343142 -9.7994661 -2.1514702 284.5
-2.8674772 -11.087711 -2.1577625 284.5
-3.3584104 -12.819729 -2.1772785 284.67999
-3.9540315 -15.093334 -2.1928115 284.67999
-4.8639483 -18.566669 -2.2444961 284.67999
-6.2682467 -23.927158 -2.3076215 284.67999
-1.1973747 -4.5706201 -2.103642 284.67999
-1.3700994 -5.2299452 -2.1111412 284.67999
-1.4726403 -5.6213646 -2.1150525 284.67999
-1.5893614 -6.0669127 -2.1191745 284.67999
-1.7224438 -6.5749149 -2.1208682 284.67999
-1.8801296 -7.1768332 -2.1273692 284.67999
-2.0681605 -7.8945851 -2.1364293 284.67999
-2.2942986 -8.7578001 -2.1451235 284.67999
-2.5645919 -9.7895632 -2.1510544 284.67999
-2.9027941 -11.08055 -2.1581328 284.67999
-3.3971496 -12.803391 -2.1763058 284.85999
-3.9999053 -15.075095 -2.1919763 284.85999
-4.9151206 -18.524418 -2.2412438 284.85999
-6.35462 -23.949694 -2.3117087 284.85999
-1.2117277 -4.5668359 -2.103642 284.85999
-1.3874785 -5.2292166 -2.1125963 284.85999
-1.4888471 -5.6112609 -2.1130004 284.85999
-1.6084133 -6.0618896 -2.1191745 284.85999
-1.7401532 -6.5583992 -2.1172936 284.85999
-1.902667 -7.1708913 -2.1273692 284.85999
-2.0924556 -7.886179 -2.1359227 284.85999
-2.3218007 -8.7505484 -2.1451235 284.85999
-2.5948322 -9.7795677 -2.1506386 284.85999
-2.9375904 -11.071376 -2.1581328 284.85999
-3.4334016 -12.795761 -2.17663 285.01999
-4.0404472 -15.058128 -2.1911414 285.01999
