# .PCD v0.7 - Point Cloud Data file format
VERSION 0.7
FIELDS x y z intensity
SIZE 4 4 4 4
TYPE F F F F
COUNT 1 1 1 1
WIDTH 1256
HEIGHT 1
VIEWPOINT 0 0 0 1 0 0 0
POINTS 1256
DATA ascii
4.9687638 3.7387965 -1.9403561 143.03999
56.342854 42.395748 4.9306664 143.03999
5.3674927 4.0388241 -1.9261539 143.03999
5.8856726 4.4287333 -1.9282565 143.03999
6.3663955 4.7904582 -1.8878192 143.03999
7.0187159 5.2813034 -1.867047 143.03999
7.4362197 5.5954585 -1.7533903 143.03999
7.4418864 5.5631919 -1.5265268 143.22
9.9476337 7.4363666 -1.745509 143.22
10.119006 7.564476 -1.4774369 143.22
11.210936 8.3807497 -1.3058748 143.22
11.404775 8.5256538 -0.99570394 143.22
3.7366862 2.7933648 -1.9486984 143.22
22.437906 16.773485 -0.65041286 143.22
4.0258298 3.0095146 -1.9627358 143.22
37.456779 28.000864 0 143.22
4.299067 3.2137733 -1.953619 143.22
11.836311 8.8482504 0.34310198 143.22
4.6271219 3.4590111 -1.9520735 143.22
4.9820142 3.7243114 -1.9409518 143.22
56.400661 42.162388 4.9241095 143.22
5.3724551 4.0161858 -1.9233974 143.22
5.9042058 4.4136968 -1.9297761 143.22
6.3876486 4.775095 -1.8896637 143.22
7.0368395 5.2603989 -1.8674628 143.22
7.474226 5.5873675 -1.7582043 143.22
7.4932117 5.5669799 -1.5336601 143.39
9.9601154 7.3997316 -1.7438389 143.39
10.141406 7.5344191 -1.4774369 143.39
11.382813 8.456706 -1.3229669 143.39
3.527246 2.6205194 -1.9564033 143.39
3.7479208 2.7844665 -1.9502401 143.39
13.558991 10.073468 -0.39216959 143.39
4.0317507 2.9953344 -1.9612807 143.39
13.575489 10.085725 0 143.39
4.3100924 3.2021244 -1.9543031 143.39
13.624797 10.122357 0.39407286 143.39
4.6358438 3.4441369 -1.9514332 143.39
13.575185 10.085499 0.78865743 143.39
4.9869123 3.7049587 -1.9385688 143.39
13.561638 10.075434 1.1813956 143.39
5.3997803 4.011693 -1.9289103 143.39
13.607905 10.109808 1.5815781 143.39
5.9126163 4.3926978 -1.9282565 143.39
13.569711 10.081432 1.9768848 143.39
6.398664 4.7538004 -1.8887415 143.39
13.559429 10.073793 2.3740149 143.39
7.0586982 5.2441635 -1.8691261 143.39
13.554317 10.069995 2.7742062 143.39
7.4939265 5.5675106 -1.7589449 143.39
13.552175 10.068403 3.180913 143.39
9.9724665 7.3630886 -1.7421689 143.56
10.166912 7.5066557 -1.4779015 143.56
11.286102 8.3330011 -1.3088473 143.56
3.5408852 2.6143832 -1.9596572 143.56
3.7650738 2.779911 -1.9548652 143.56
13.561476 10.013003 -0.39138043 143.56
4.0331268 2.9778256 -1.9576434 143.56
4.3210859 3.1904383 -1.9549872 143.56
4.6429935 3.4281161 -1.9501526 143.56
13.58737 10.032123 0.78763258 143.56
5.002491 3.693548 -1.9403561 143.56
5.4147525 3.9979379 -1.9300128 143.56
5.9334059 4.3808813 -1.930789 143.56
13.585181 10.030506 1.9747941 143.56
6.4064784 4.7301702 -1.886897 143.56
7.0695052 5.2197108 -1.8678787 143.56
13.592074 10.035596 2.7758274 143.56
7.8392897 5.788075 -1.8359681 143.56
13.5978 10.039824 3.1846161 143.56
8.8158655 6.4735284 -1.7969438 143.71001
9.982131 7.3299222 -1.7404988 143.71001
10.191333 7.4835401 -1.4785984 143.71001
11.325536 8.31639 -1.310891 143.71001
11.218359 8.23769 -0.97324234 143.71001
3.5565536 2.6115928 -1.964538 143.71001
3.7693636 2.7678602 -1.9533235 143.71001
13.610206 9.9940338 -0.39203033 143.71001
4.0364037 2.963949 -1.9554609 143.71001
13.667071 10.03579 0 143.71001
4.3339682 3.1824517 -1.9570392 143.71001
13.644051 10.018886 0.39300516 143.71001
4.6534796 3.4170704 -1.9507929 143.71001
13.632911 10.010706 0.78875059 143.71001
4.9982939 3.6702688 -1.9349943 143.71001
13.643428 10.018429 1.1836278 143.71001
5.4252009 3.9837484 -1.9300128 143.71001
13.652921 10.025399 1.5802776 143.71001
5.9417357 4.3630424 -1.9297761 143.71001
6.4157028 4.7110782 -1.8859748 143.71001
7.0973377 5.211606 -1.871621 143.71001
7.8797631 5.7861443 -1.8418931 143.71001
8.834095 6.4419327 -1.7962953 143.89999
10.004783 7.2956133 -1.7402204 143.89999
10.216093 7.4497037 -1.4785984 143.89999
11.311218 8.2482824 -1.3060606 143.89999
11.401982 8.3144684 -0.9867751 143.89999
3.5651944 2.5997844 -1.964538 143.89999
12.364967 9.0166893 -0.71365809 143.89999
3.7710657 2.7499084 -1.9494693 143.89999
13.654581 9.9570923 -0.39235526 143.89999
4.0371785 2.9439614 -1.9510961 143.89999
4.3399425 3.1647403 -1.9549872 143.89999
4.6709094 3.4060857 -1.9533539 143.89999
5.0196929 3.660423 -1.9385688 143.89999
5.4539151 3.9770634 -1.9355255 143.89999
58.626862 42.751442 6.7694068 143.89999
5.9624248 4.3478751 -1.931802 143.89999
6.4312897 4.6897774 -1.8859748 143.89999
7.1082582 5.1834311 -1.8699578 143.89999
7.8909674 5.7541924 -1.8400415 143.89999
8.8515711 6.414535 -1.795971 144.07001
10.01997 7.2612476 -1.739107 144.07001
10.23976 7.4205246 -1.4788307 144.07001
11.413039 8.2707739 -1.3149782 144.07001
3.5728924 2.589195 -1.964538 144.07001
12.529171 9.0796089 -0.72157729 144.07001
3.7956462 2.7506194 -1.9579486 144.07001
22.413889 16.242842 -0.6426605 144.07001
4.05193 2.9363427 -1.954006 144.07001
37.821079 27.408087 0 144.07001
4.3462696 3.1496439 -1.953619 144.07001
11.831891 8.5743055 0.33924899 144.07001
4.6763921 3.3888762 -1.9514332 144.07001
57.50639 41.673588 3.3118954 144.07001
5.0197101 3.637671 -1.9343987 144.07001
5.4703617 3.9642482 -1.9371793 144.07001
58.742165 42.569126 6.7681065 144.07001
5.9799991 4.333571 -1.9333216 144.07001
6.4530554 4.6763844 -1.8882804 144.07001
7.1251907 5.1634655 -1.8703736 144.07001
7.906414 5.7296004 -1.8396713 144.07001
8.8572645 6.376318 -1.7930529 144.25
10.028267 7.2193189 -1.7366019 144.25
11.455128 8.2465124 -1.3168361 144.25
3.5839746 2.5800924 -1.9661649 144.25
12.559255 9.0413694 -0.72167045 144.25
3.7967801 2.7332904 -1.9540944 144.25
12.751261 9.179594 -0.36478084 144.25
4.052063 2.917068 -1.9496411 144.25
37.762539 27.185137 0 144.25
4.3607187 3.1392684 -1.9556712 144.25
11.810088 8.5020466 0.33785632 144.25
4.6931663 3.3785963 -1.9539942 144.25
5.0295639 3.6207678 -1.9338028 144.25
5.4843488 3.9481664 -1.9377307 144.25
58.959648 42.444874 6.7777672 144.25
5.9841623 4.3079805 -1.9302826 144.25
6.4645562 4.6538143 -1.8873581 144.25
7.1270876 5.1307693 -1.8666312 144.25
7.9243751 5.7047338 -1.8396713 144.25
8.8616982 6.3396754 -1.7901348 144.42
9.4520445 6.7620096 -1.6333355 144.42
11.361317 8.1279068 -1.3032738 144.42
10.571535 7.5628958 -0.90892684 144.42
3.591614 2.5694473 -1.9661649 144.42
12.545405 8.9750061 -0.71934128 144.42
3.7928655 2.713423 -1.9479276 144.42
22.888338 16.374359 -0.65338385 144.42
4.0652456 2.9082842 -1.9518236 144.42
38.348907 27.434877 0 144.42
4.3593144 3.1186616 -1.9508829 144.42
11.83201 8.4646416 0.33776349 144.42
4.7016292 3.363554 -1.9533539 144.42
5.0387321 3.604718 -1.933207 144.42
5.516366 3.9464183 -1.9448972 144.42
59.020542 42.223404 6.7703357 144.42
5.9953442 4.2890801 -1.9297761 144.42
6.4751701 4.6323485 -1.8864359 144.42
7.1581903 5.1209826 -1.8707894 144.42
7.9300771 5.6731915 -1.837079 144.42
8.8820782 6.3144979 -1.7904589 144.59
9.4171829 6.6949177 -1.6238717 144.59
10.478123 7.4491668 -1.1994207 144.59
10.567911 7.5129995 -0.90669465 144.59
3.5843308 2.548193 -1.9580302 144.59
12.575235 8.9400587 -0.7195276 144.59
3.8069162 2.7064347 -1.9510109 144.59
12.844619 9.1315699 -0.36589497 144.59
4.0708203 2.8940508 -1.9503686 144.59
38.757778 27.553902 0 144.59
4.3731437 3.1089804 -1.952935 144.59
11.798407 8.3877907 0.33609229 144.59
4.7069554 3.3462956 -1.9514332 144.59
5.0525169 3.5919645 -1.9343987 144.59
23.651371 16.814369 2.0292158 144.59
5.5170827 3.922236 -1.9410383 144.59
59.481522 42.286945 6.8087931 144.59
6.0143514 4.2757573 -1.931802 144.59
6.4936447 4.6164989 -1.8878192 144.59
7.1701641 5.0974541 -1.8699578 144.59
7.9532824 5.6541929 -1.8385603 144.59
8.884656 6.2767291 -1.7872165 144.75999
8.7964411 6.2144084 -1.5136466 144.75999
9.1732101 6.4805837 -1.3134321 144.75999
10.601562 7.4896693 -0.90767121 144.75999
3.6023214 2.5449264 -1.9637245 144.75999
12.69145 8.9661093 -0.72465181 144.75999
3.8179443 2.697257 -1.9525527 144.75999
22.687887 16.028276 -0.64493513 144.75999
4.0748243 2.8787348 -1.9481862 144.75999
39.210163 27.700743 0 144.75999
4.3915586 3.1024978 -1.9570392 144.75999
11.80038 8.3365955 0.33544239 144.75999
4.7168632 3.3323152 -1.9514332 144.75999
5.0631523 3.5769575 -1.9343987 144.75999
57.708935 40.769543 4.9408512 144.75999
5.5412574 3.9147236 -1.9454484 144.75999
59.863705 42.291817 6.8381467 144.75999
6.0238509 4.2556605 -1.930789 144.75999
6.5168505 4.6039491 -1.8905859 144.75999
7.1756701 5.0693846 -1.8674628 144.75999
7.960392 5.6237659 -1.8363385 144.75999
8.8951635 6.2446704 -1.7855953 144.92999
9.2639351 6.5035586 -1.3236533 144.92999
10.530291 7.3925786 -1.2003496 144.92999
10.622106 7.4570346 -0.90753174 144.92999
2.5615923 1.7983143 -1.3934797 144.92999
2.5934157 1.8206553 -1.3235424 144.92999
22.558605 15.836815 -0.63992161 144.92999
4.0924964 2.8730545 -1.952551 144.92999
38.974621 27.361347 0 144.92999
4.4022832 3.090534 -1.9577233 144.92999
11.803788 8.2866116 0.33483893 144.92999
4.7298312 3.3204827 -1.9527136 144.92999
5.0815563 3.567404 -1.9373773 144.92999
5.5528483 3.8982651 -1.9454484 144.92999
6.0396185 4.2399921 -1.931802 144.92999
6.5257034 4.5812383 -1.8892026 144.92999
7.1746688 5.0368314 -1.8633046 144.92999
7.9706087 5.5956049 -1.8348572 144.92999
8.9212132 6.22121 -1.7868923 145.11
8.8504839 6.1718869 -1.5164301 145.11
10.501194 7.3230104 -1.1944045 145.11
11.458824 7.9908133 -0.97686964 145.11
2.559736 1.7850325 -1.3894124 145.11
2.5915539 1.8072208 -1.3196882 145.11
22.583647 15.748711 -0.6392253 145.11
4.1060863 2.8633804 -1.9547335 145.11
38.829075 27.077465 0 145.11
4.4150534 3.0788386 -1.9590914 145.11
38.838295 27.083895 1.0993097 145.11
4.7386856 3.3045232 -1.9520735 145.11
38.822975 27.07321 2.207216 145.11
5.0833421 3.5448699 -1.9338028 145.11
5.5366826 3.8610067 -1.9355255 145.11
6.051322 4.2198906 -1.9312955 145.11
6.5448523 4.5640545 -1.8905859 145.11
7.1712012 5.0008388 -1.8583146 145.11
7.9816999 5.56604 -1.833376 145.11
8.9336853 6.1929002 -1.7859195 145.27
9.1978798 6.3760419 -1.308786 145.27
12.411859 8.6039963 -1.4089849 145.27
11.699172 8.1099567 -0.99542487 145.27
2.5797267 1.7882864 -1.3975471 145.27
2.5890071 1.7947198 -1.3158339 145.27
13.027678 9.0308867 -0.36803037 145.27
4.1110044 2.8497801 -1.9532785 145.27
39.302311 27.244667 0 145.27
4.4205451 3.0643561 -1.9577233 145.27
11.791954 8.1742735 0.33312133 145.27
4.7525663 3.2945158 -1.9539942 145.27
58.864017 40.804996 3.3401248 145.27
5.0932217 3.5306606 -1.9338028 145.27
58.425354 40.500908 4.9711251 145.27
5.5585027 3.8531973 -1.9393845 145.27
6.067853 4.2062826 -1.9328151 145.27
6.5383792 4.532455 -1.8850526 145.27
7.2012157 4.9919386 -1.8624729 145.27
8.0004425 5.545969 -1.8341167 145.27
8.9335909 6.1513724 -1.7820287 145.45
8.9570961 6.1675568 -1.528399 145.45
9.183507 6.3234563 -1.3039078 145.45
10.49526 7.226686 -1.188831 145.45
2.5883417 1.7822456 -1.3991741 145.45
12.816605 8.8250856 -0.7256766 145.45
4.1230059 2.838964 -1.9547335 145.45
24.035217 16.549849 0 145.45
4.4286022 3.0493875 -1.9570392 145.45
4.7519689 3.272047 -1.9495125 145.45
5.1074333 3.516808 -1.9349943 145.45
5.5832481 3.8444383 -1.9437946 145.45
6.0682888 4.178421 -1.928763 145.45
6.5429688 4.50527 -1.8822858 145.45
7.2265306 4.9759474 -1.8649678 145.45
8.0194454 5.5219221 -1.834487 145.45
8.9306288 6.1103516 -1.7778136 145.62
9.0227575 6.1733861 -1.536471 145.62
9.2661676 6.3399272 -1.3129675 145.62
10.58404 7.2416177 -1.1964481 145.62
11.76002 8.0462265 -0.99640149 145.62
12.993491 8.8901682 -0.36552358 145.62
4.1267982 2.8235624 -1.952551 145.62
11.82175 8.0884609 0 145.62
4.4376302 3.0362341 -1.9570392 145.62
11.77731 8.0580559 0.33131087 145.62
4.7741666 3.2664928 -1.9546343 145.62
24.419163 16.707634 1.3798012 145.62
5.120997 3.5037947 -1.9361858 145.62
58.457611 39.996796 4.9529886 145.62
5.5978036 3.8300269 -1.9448972 145.62
63.716244 43.594761 7.2026548 145.62
6.0838532 4.1625829 -1.9297761 145.62
6.5530949 4.4836388 -1.8813635 145.62
7.2509499 4.961112 -1.8674628 145.62
8.0293055 5.4936643 -1.8330058 145.62
8.8899651 6.0438824 -1.7661409 145.78999
9.1966324 6.2523718 -1.5629139 145.78999
9.0763054 6.170567 -1.2834653 145.78999
12.453204 8.4663658 -1.4048976 145.78999
3.8688653 2.6302655 -1.9540944 145.78999
23.890047 16.241755 -0.67069912 145.78999
4.1366982 2.8123529 -1.9532785 145.78999
24.243818 16.482267 0 145.78999
4.4466195 3.0230541 -1.9570392 145.78999
4.7744355 3.2459214 -1.9507929 145.78999
24.36289 16.563219 1.3738384 145.78999
5.1297913 3.4875116 -1.9355901 145.78999
24.100615 16.384911 2.0378656 145.78999
5.6123228 3.8155627 -1.9459997 145.78999
6.092977 4.1423378 -1.928763 145.78999
6.5615411 4.4608932 -1.8799802 145.78999
7.2624021 4.9373765 -1.8666312 145.78999
8.0423193 5.4676065 -1.8322651 145.78999
8.9219923 6.0247593 -1.7687348 145.97
9.0931273 6.1403217 -1.542038 145.97
3.6537449 2.4672666 -1.962911 145.97
3.8725212 2.6149998 -1.9517819 145.97
13.423704 9.0646324 -0.37606129 145.97
4.1470571 2.800386 -1.954006 145.97
11.811269 7.9758029 0 145.97
4.4592099 3.0111732 -1.9584073 145.97
4.7814689 3.2287855 -1.9495125 145.97
24.101879 16.27529 1.3562299 145.97
5.1423044 3.4724472 -1.9361858 145.97
5.6306553 3.8022158 -1.9482049 145.97
6.1043568 4.1220927 -1.9282565 145.97
6.577136 4.4413466 -1.8804413 145.97
7.2794986 4.9156313 -1.867047 145.97
8.0529413 5.4379144 -1.830784 145.97
8.9513006 6.0059581 -1.7710046 146.14
9.1145954 6.1155219 -1.5425947 146.14
9.2754869 6.2234735 -1.3062308 146.14
10.783269 7.2351336 -1.2114966 146.14
11.015779 7.3911386 -0.9276216 146.14
3.6504288 2.4492888 -1.9572167 146.14
3.883328 2.6055546 -1.9533235 146.14
13.701254 9.1929827 -0.38307095 146.14
4.1522536 2.7859929 -1.952551 146.14
40.237934 26.998013 0 146.14
4.465003 2.9958351 -1.9570392 146.14
11.783543 7.9062767 0.329454 146.14
4.7941747 3.2166958 -1.9507929 146.14
24.223059 16.252684 1.3603293 146.14
5.1478286 3.4539831 -1.9343987 146.14
24.163805 16.212927 2.0347962 146.14
5.6403151 3.7844214 -1.9476535 146.14
24.17926 16.223297 2.7165318 146.14
6.1101341 4.0996509 -1.9262305 146.14
6.5935168 4.4239807 -1.8813635 146.14
8.0690403 5.4139972 -1.830784 146.14
8.9543028 5.9695201 -1.7680863 146.31
9.1788416 6.1192122 -1.5503883 146.31
9.2922583 6.1948233 -1.3059984 146.31
10.643969 7.0959606 -1.1934756 146.31
3.6668015 2.4445281 -1.9620975 146.31
3.8956482 2.5970922 -1.955636 146.31
13.379102 8.9193783 -0.37332243 146.31
4.1667023 2.7777944 -1.9554609 146.31
24.209354 16.139528 0 146.31
4.4707451 2.980489 -1.9556712 146.31
24.289343 16.192854 0.67775518 146.31
4.8068509 3.2045591 -1.9520735 146.31
24.326031 16.217312 1.3634037 146.31
5.1437569 3.4291625 -1.9290369 146.31
24.289825 16.193176 2.0413535 146.31
5.641921 3.7612712 -1.944346 146.31
63.174538 42.116249 7.0835676 146.31
6.1142216 4.0761375 -1.9236981 146.31
6.5790863 4.3860464 -1.8735245 146.31
6.9732265 4.6488056 -1.7813873 146.31
8.0687151 5.3791299 -1.8270808 146.31
8.9522314 5.9298477 -1.7641954 146.48
9.3340034 6.1827288 -1.5734911 146.48
9.3437204 6.1891651 -1.3106445 146.48
12.609042 8.3520746 -1.4110285 146.48
10.836559 7.1780033 -0.90892684 146.48
3.6709919 2.4316196 -1.9604707 146.48
3.9033368 2.5855222 -1.955636 146.48
23.785524 15.755238 -0.66238964 146.48
4.1780319 2.7674768 -1.9569159 146.48
23.88364 15.820229 0 146.48
4.4780016 2.9661732 -1.9549872 146.48
11.783578 7.8052964 0.32815421 146.48
4.810019 3.1860974 -1.9495125 146.48
24.463982 16.204639 1.3684348 146.48
5.1746011 3.4275918 -1.9367816 146.48
5.6450424 3.7392063 -1.9415896 146.48
63.559868 42.101273 7.1127353 146.48
6.1182237 4.0526361 -1.9211655 146.48
6.5936937 4.3675814 -1.8739856 146.48
6.9723105 4.6183724 -1.777645 146.48
8.0649767 5.3421412 -1.8226372 146.48
8.9543285 5.8908472 -1.7609531 146.66
9.2871981 6.1098342 -1.5623572 146.66
9.2768221 6.1030083 -1.2985648 146.66
12.959196 8.5255575 -1.0847132 146.66
3.6816657 2.4220834 -1.9620975 146.66
3.9145238 2.5752754 -1.9571778 146.66
13.187789 8.6759434 -0.36649844 146.66
4.1820364 2.7512658 -1.9547335 146.66
24.140408 15.88142 0 146.66
4.490438 2.9541562 -1.9563552 146.66
4.8263364 3.1751361 -1.9520735 146.66
5.1757736 3.4050226 -1.933207 146.66
5.6487308 3.7161703 -1.9388331 146.66
6.1212268 4.0270147 -1.9181265 146.66
6.5992532 4.3414969 -1.87168 146.66
7.3038464 4.8050327 -1.8583146 146.66
8.9591818 5.8582587 -1.7586833 146.82001
9.224658 6.0318489 -1.5489966 146.82001
9.3004789 6.0814271 -1.299494 146.82001
10.743375 7.0249128 -1.1975628 146.82001
3.6899443 2.4127927 -1.962911 146.82001
3.9278784 2.5683739 -1.9602611 146.82001
24.027536 15.711204 -0.66652119 146.82001
4.189703 2.7395766 -1.9547335 146.82001
24.623228 16.100716 0 146.82001
4.4955244 2.939548 -1.9549872 146.82001
11.749361 7.6827106 0.32592598 146.82001
4.8288412 3.1574981 -1.9495125 146.82001
5.1868601 3.3916006 -1.9338028 146.82001
5.6735678 3.709851 -1.9437946 146.82001
6.1324487 4.0099053 -1.9181265 146.82001
6.6357832 4.3390274 -1.8785969 146.82001
6.9144526 4.5212445 -1.7560221 146.82001
7.8645954 5.1425271 -1.7704244 146.82001
8.9808521 5.8322334 -1.7593318 147
9.1953926 5.9715576 -1.5409245 147
9.4678106 6.1484685 -1.3201689 147
3.7021029 2.4041739 -1.9653515 147
3.9374754 2.5570264 -1.9610319 147
24.023115 15.600794 -0.66503567 147
4.2061014 2.7314742 -1.9583708 147
11.828609 7.6815891 0 147
4.5000086 2.9223397 -1.952935 147
4.8419151 3.1443763 -1.9507929 147
5.1894832 3.3700898 -1.930824 147
5.6787453 3.6878202 -1.9415896 147
64.799438 42.081249 7.2084141 147
6.1482611 3.9927275 -1.9191395 147
6.6526461 4.3202791 -1.8795191 147
7.3043394 4.7434936 -1.8512456 147
8.0982933 5.2590928 -1.8193045 147
9.0163593 5.8173308 -1.7628984 147.17
9.4094467 6.0709496 -1.5737695 147.17
9.1805506 5.9232664 -1.2776576 147.17
10.960111 7.071434 -1.2168844 147.17
13.012775 8.3958082 -1.0828995 147.17
3.7000084 2.3872354 -1.9604707 147.17
3.945045 2.5453324 -1.9610319 147.17
23.916409 15.430802 -0.66081131 147.17
4.2141871 2.7189825 -1.9583708 147.17
24.285854 15.669168 0 147.17
4.5070801 2.9079561 -1.952251 147.17
4.8591838 3.1351326 -1.9539942 147.17
5.2058768 3.3588178 -1.933207 147.17
5.6832004 3.6667857 -1.9393845 147.17
65.384171 42.185692 7.2595048 147.17
6.1568294 3.9723697 -1.9181265 147.17
6.6638002 4.2994661 -1.879058 147.17
7.3726282 4.7568002 -1.8649678 147.17
8.1320276 5.2467628 -1.8233778 147.17
9.028595 5.7873578 -1.7619258 147.34
9.3407135 5.9874272 -1.5592954 147.34
9.1813612 5.8852811 -1.2753347 147.34
3.713228 2.3801908 -1.9637245 147.34
3.9525797 2.5336161 -1.9610319 147.34
13.626491 8.7346239 -0.37578276 147.34
4.219099 2.7044559 -1.9569159 147.34
44.645306 28.617783 0 147.34
4.5188527 2.8965991 -1.953619 147.34
11.68562 7.4905195 0.32225868 147.34
4.871655 3.1227462 -1.9552746 147.34
5.2093902 3.3392358 -1.930824 147.34
5.682725 3.6426446 -1.9355255 147.34
6.1734748 3.957217 -1.919646 147.34
6.6716123 4.2765245 -1.8776746 147.34
7.3867097 4.7349043 -1.8649678 147.34
8.1591425 5.2300358 -1.8259699 147.34
9.0413923 5.7600021 -1.7612773 147.5
9.6229858 6.130518 -1.6035525 147.5
9.4741955 6.035728 -1.3136644 147.5
10.424592 6.6411972 -1.1531605 147.5
13.185433 8.4000473 -1.0932235 147.5
3.7106144 2.3639221 -1.9588437 147.5
13.316174 8.4833384 -0.73629767 147.5
3.9596395 2.5225687 -1.9610319 147.5
24.298307 15.479729 -0.66888869 147.5
4.2234926 2.6906614 -1.9554609 147.5
24.81089 15.80628 0 147.5
4.5237541 2.8819492 -1.952251 147.5
4.872366 3.1040397 -1.9520735 147.5
5.2138643 3.3215978 -1.9290369 147.5
5.6993608 3.6308932 -1.9377307 147.5
6.1845016 3.9399619 -1.919646 147.5
6.6999421 4.2683339 -1.8822858 147.5
7.4131026 4.7226672 -1.8682945 147.5
8.1621122 5.1998386 -1.8233778 147.5
9.0494366 5.7252383 -1.7593318 147.67999
9.2840252 5.8736544 -1.5439864 147.67999
9.3638496 5.9241557 -1.2957772 147.67999
13.119026 8.2999144 -1.0855502 147.67999
3.7180226 2.3522532 -1.9588437 147.67999
3.9659853 2.50913 -1.9602611 147.67999
24.093363 15.242966 -0.66192544 147.67999
4.2303505 2.6763837 -1.9547335 147.67999
45.412655 28.730881 0 147.67999
4.5343738 2.8687279 -1.952935 147.67999
11.650448 7.370801 0.32007685 147.67999
4.8788915 3.0866911 -1.9507929 147.67999
5.2242737 3.3052018 -1.9290369 147.67999
5.7042408 3.6088588 -1.9355255 147.67999
6.2050238 3.9256856 -1.9221785 147.67999
6.7264752 4.2555881 -1.8859748 147.67999
7.4196362 4.6941252 -1.8662153 147.67999
8.1684418 5.1678662 -1.821156 147.67999
9.0556803 5.6894312 -1.7570622 147.86
9.389637 5.8992472 -1.5584604 147.86
10.36809 6.5139813 -1.4319059 147.86
3.725394 2.3405612 -1.9588437 147.86
13.364138 8.3963146 -0.73601812 147.86
3.9769738 2.4986217 -1.9618028 147.86
24.259645 15.241658 -0.66517496 147.86
4.2387376 2.6630805 -1.9547335 147.86
45.519627 28.598711 0 147.86
4.5545034 2.8614674 -1.9577233 147.86
11.621062 7.3011889 0.31863779 147.86
4.8901687 3.0723565 -1.9514332 147.86
5.2313981 3.2867415 -1.9278454 147.86
5.7139225 3.5898979 -1.9349742 147.86
6.2140498 3.904114 -1.9211655 147.86
6.7464027 4.2385764 -1.8878192 147.86
7.4326901 4.6697521 -1.8657995 147.86
8.1763163 5.136951 -1.8193045 147.86
9.0564671 5.6547136 -1.754144 148.02
10.266212 6.4100595 -1.7009736 148.02
10.37276 6.4765859 -1.4300474 148.02
10.555379 6.5906105 -1.1609634 148.02
13.098661 8.1785955 -1.0798302 148.02
3.744314 2.3378901 -1.9653515 148.02
13.216375 8.2520943 -0.72660828 148.02
3.9823704 2.4865286 -1.9610319 148.02
24.290241 15.16644 -0.66485 148.02
4.2398367 2.6472867 -1.9518236 148.02
4.5481286 2.8397794 -1.9515669 148.02
4.8971219 3.0576851 -1.9507929 148.02
64.958344 40.558956 3.5712719 148.02
5.2437949 3.2741423 -1.9290369 148.02
5.7059865 3.5627272 -1.9289103 148.02
6.2265687 3.8877707 -1.921672 148.02
6.7697682 4.2269354 -1.891047 148.02
7.439064 4.6448336 -1.8641362 148.02
8.2022991 5.1213851 -1.8218967 148.02
9.054059 5.6137547 -1.7502531 148.2
10.281249 6.3746448 -1.7001386 148.2
10.401497 6.4492011 -1.4312088 148.2
10.664039 6.6119838 -1.1706241 148.2
10.473998 6.494154 -0.86177146 148.2
3.7485347 2.3241899 -1.9637245 148.2
13.507113 8.3747654 -0.74114233 148.2
3.9854569 2.4710879 -1.9587194 148.2
24.439728 15.153273 -0.66763526 148.2
4.2544656 2.6378806 -1.9547335 148.2
46.198467 28.644262 0 148.2
4.5538335 2.8234963 -1.9501989 148.2
11.626799 7.2089205 0.31761652 148.2
4.9115348 3.0452807 -1.9527136 148.2
65.178825 40.412586 3.576396 148.2
5.2573004 3.2596643 -1.9302284 148.2
5.715517 3.5437708 -1.9283589 148.2
6.233819 3.8651314 -1.9201525 148.2
6.7896299 4.2097487 -1.8928915 148.2
7.4536195 4.6214399 -1.8641362 148.2
8.2116661 5.0914488 -1.8204154 148.2
9.0680199 5.5874138 -1.7499288 148.36
12.750799 7.8566203 -1.3972805 148.36
3.7581213 2.31563 -1.9653515 148.36
3.9876285 2.4570446 -1.956407 148.36
24.669197 15.200342 -0.67274165 148.36
4.2618155 2.6259897 -1.9547335 148.36
11.733457 7.2297668 0 148.36
4.5633001 2.8117545 -1.9508829 148.36
11.599221 7.1470556 0.31631669 148.36
4.9184065 3.0305593 -1.9520735 148.36
5.2533793 3.2369583 -1.9254624 148.36
5.7303014 3.5308218 -1.9300128 148.36
6.2412934 3.8456783 -1.9191395 148.36
6.8030162 4.1917934 -1.8933526 148.36
7.4748235 4.6057386 -1.8662153 148.36
8.214139 5.0612803 -1.8178233 148.36
9.0915499 5.5604014 -1.7509016 148.55
10.883 6.6560545 -1.4918395 148.55
12.76659 7.8080602 -1.3961657 148.55
10.617297 6.4935498 -0.87028176 148.55
3.7611036 2.3002949 -1.962911 148.55
13.227378 8.0898781 -0.72306794 148.55
3.99418 2.4428446 -1.955636 148.55
24.72629 15.122625 -0.67292738 148.55
4.2673216 2.6098983 -1.9532785 148.55
4.5693927 2.7946453 -1.9495149 148.55
11.592155 7.0897737 0.31548113 148.55
4.9284291 3.0142326 -1.9520735 148.55
5.2657132 3.2205157 -1.9260581 148.55
5.738698 3.5097938 -1.9289103 148.55
6.250711 3.8229413 -1.9181265 148.55
6.8152189 4.1681952 -1.8928915 148.55
7.4850488 4.5778637 -1.8649678 148.55
8.2292013 5.0329881 -1.8174529 148.55
9.1094484 5.5386314 -1.7515501 148.7
10.314487 6.271306 -1.6965201 148.7
11.095584 6.7462206 -1.5185542 148.7
12.747852 7.7508159 -1.3918928 148.7
11.026354 6.7041283 -0.90236974 148.7
3.7686739 2.2913897 -1.9637245 148.7
4.0084462 2.4371734 -1.9594903 148.7
11.796898 7.172626 -0.32054108 148.7
4.2773232 2.6006534 -1.9547335 148.7
11.677034 7.0997481 0 148.7
4.5718756 2.7797441 -1.9474627 148.7
11.569673 7.034471 0.314367 148.7
4.9314466 2.9983666 -1.9501526 148.7
5.2659698 3.2017598 -1.9230794 148.7
5.7495098 3.4957569 -1.9294615 148.7
6.2772298 3.8166156 -1.9231915 148.7
6.822782 4.1483164 -1.8919693 148.7
7.4970083 4.5582523 -1.8649678 148.7
8.2305937 5.0042796 -1.8148608 148.7
9.1166668 5.5038662 -1.7496046 148.88
10.335834 6.2398949 -1.6967984 148.88
11.196651 6.759583 -1.5294724 148.88
12.908521 7.7930646 -1.4067554 148.88
11.093477 6.6972961 -0.90613657 148.88
3.7711616 2.2767057 -1.961284 148.88
13.054832 7.8813949 -0.7111426 148.88
4.0050235 2.417892 -1.9540944 148.88
11.761174 7.1003947 -0.31896272 148.88
4.2870674 2.5881658 -1.9554609 148.88
46.970055 28.356516 0 148.88
4.5838037 2.7673101 -1.9488307 148.88
11.548923 6.9722548 0.31320646 148.88
4.9473305 2.9867764 -1.9527136 148.88
5.2792711 3.1871738 -1.9242709 148.88
5.7588177 3.4766834 -1.9289103 148.88
6.2726254 3.7868767 -1.9181265 148.88
6.8491092 4.1349082 -1.8956583 148.88
7.5096164 4.5336661 -1.864552 148.88
8.246274 4.9783974 -1.8148608 148.88
9.1261864 5.4727321 -1.7483076 149.05
10.345809 6.2041078 -1.6954067 149.05
11.21325 6.7242889 -1.5290078 149.05
12.779592 7.6635823 -1.3902206 149.05
3.7904356 2.2730238 -1.9677919 149.05
22.955742 13.76595 -1.2482495 149.05
4.0200934 2.4107437 -1.9579486 149.05
11.753038 7.047986 -0.31817356 149.05
4.2931299 2.5744762 -1.9547335 149.05
11.672159 6.999485 0 149.05
4.5839353 2.7488647 -1.9454106 149.05
11.533548 6.9163632 0.3122316 149.05
4.9577956 2.9730587 -1.9533539 149.05
5.28543 3.1695323 -1.9230794 149.05
5.7641616 3.456615 -1.9272563 149.05
6.283834 3.7682488 -1.9181265 149.05
28.484585 17.081451 3.8840795 149.05
6.8563404 4.1115656 -1.8942748 149.05
7.5213575 4.5103588 -1.8641362 149.05
8.2626953 4.9549193 -1.8152311 149.05
9.1501169 5.4480734 -1.7496046 149.23
10.361845 6.1695485 -1.69485 149.23
11.386227 6.7794757 -1.5496826 149.23
13.14752 7.8281674 -1.4275633 149.23
3.7912781 2.2573657 -1.964538 149.23
22.864983 13.614043 -1.2409825 149.23
4.0149617 2.3905492 -1.9517819 149.23
11.721865 6.9793177 -0.31673449 149.23
4.2963943 2.5581172 -1.952551 149.23
47.549671 28.31156 0 149.23
4.6022377 2.7402191 -1.9495149 149.23
11.536322 6.8688436 0.31172097 149.23
4.958971 2.9526219 -1.9501526 149.23
5.2937207 3.1519351 -1.9224836 149.23
5.7749925 3.4384894 -1.9272563 149.23
6.2939787 3.7474992 -1.9176199 149.23
28.495436 16.966473 3.8782718 149.23
6.8675513 4.0890102 -1.8938137 149.23
7.547256 4.4937134 -1.867047 149.23
8.2731543 4.9259205 -1.8141202 149.23
9.18153 5.4299417 -1.7525228 149.39999
10.371581 6.1337361 -1.6934583 149.39999
11.380644 6.730494 -1.5461981 149.39999
10.534494 6.2300825 -1.1418277 149.39999
13.236876 7.8282666 -1.0753658 149.39999
3.8058226 2.2507572 -1.9686054 149.39999
22.924191 13.557328 -1.2420074 149.39999
4.0252142 2.3805048 -1.9533235 149.39999
32.510075 19.226404 -0.87690383 149.39999
4.302362 2.5444098 -1.9518236 149.39999
47.716095 28.219219 0 149.39999
4.6038771 2.7227254 -1.9467787 149.39999
11.541162 6.8254242 0.31130317 149.39999
4.9726024 2.9407887 -1.9520735 149.39999
5.3063359 3.1381583 -1.9236751 149.39999
5.7851691 3.4213395 -1.9272563 149.39999
6.290082 3.719944 -1.9130615 149.39999
28.54565 16.881851 3.8782718 149.39999
6.8712778 4.0636625 -1.8915082 149.39999
7.5134077 4.4434171 -1.8554039 149.39999
8.2708158 4.8913469 -1.8104172 149.39999
9.2078104 5.4086733 -1.7544682 149.57001
10.394858 6.1059456 -1.6942934 149.57001
11.33719 6.6594715 -1.5376029 149.57001
3.8140593 2.2403805 -1.9694189 149.57001
22.93503 13.47205 -1.2404234 149.57001
4.0386243 2.3722901 -1.956407 149.57001
11.702733 6.8741922 -0.31510976 149.57001
4.3179245 2.5363512 -1.9554609 149.57001
47.675449 28.004585 0 149.57001
4.6119351 2.7090533 -1.9467787 149.57001
4.9780383 2.9241025 -1.9507929 149.57001
5.3205624 3.1253014 -1.9254624 149.57001
5.7919798 3.4022121 -1.9261539 149.57001
6.3144374 3.7091041 -1.9171134 149.57001
28.583626 16.790037 3.8766458 149.57001
6.8833046 4.0432572 -1.8915082 149.57001
7.5721025 4.4478574 -1.8666312 149.57001
7.461678 4.3829937 -1.6304493 149.57001
9.2306366 5.3853073 -1.7557652 149.74001
10.419772 6.0790687 -1.6954067 149.74001
11.271109 6.5757527 -1.5259879 149.74001
12.67659 7.3957338 -1.3692272 149.74001
3.8206899 2.2290542 -1.9694189 149.74001
22.952469 13.390853 -1.2392123 149.74001
4.0583978 2.3677368 -1.9625736 149.74001
28.689419 16.737885 -0.77115542 149.74001
4.318994 2.5197732 -1.952551 149.74001
28.676418 16.730301 0 149.74001
4.6345625 2.7038813 -1.952935 149.74001
28.691145 16.738892 0.77120185 149.74001
4.9866924 2.9093196 -1.9507929 149.74001
28.672897 16.728247 1.5480604 149.74001
5.3199172 3.1037285 -1.9218879 149.74001
28.677219 16.730768 2.321635 149.74001
5.8053699 3.3869495 -1.9272563 149.74001
28.65563 16.718172 3.0951593 149.74001
6.3287573 3.6923025 -1.9181265 149.74001
28.547525 16.655104 3.8650305 149.74001
6.89359 4.0218353 -1.891047 149.74001
7.5920253 4.4293141 -1.8682945 149.74001
8.2810221 4.8312864 -1.8063438 149.74001
9.2816648 5.3760653 -1.7622499 149.92
10.433677 6.0433259 -1.6945717 149.92
11.255613 6.5194025 -1.5211096 149.92
3.8245118 2.2152085 -1.9677919 149.92
23.003067 13.323687 -1.2396781 149.92
4.0498466 2.3457255 -1.9548652 149.92
11.716824 6.7865419 -0.314367 149.92
4.3301134 2.5080597 -1.954006 149.92
47.958122 27.777988 0 149.92
4.6332765 2.6836562 -1.9488307 149.92
4.9974475 2.8945887 -1.9514332 149.92
5.3395543 3.0927417 -1.9254624 149.92
5.8176451 3.3696585 -1.9278077 149.92
6.3369775 3.6704626 -1.9171134 149.92
28.508606 16.512568 3.8527186 149.92
6.902823 3.998208 -1.8901248 149.92
7.5788174 4.3897533 -1.8616413 149.92
8.3029623 4.8091874 -1.8078251 149.92
9.2795362 5.340281 -1.7590076 150.08
10.433347 6.0042872 -1.6917882 150.08
11.316818 6.5127163 -1.5269171 150.08
13.015391 7.4902287 -1.4009962 150.08
12.54724 7.2208123 -1.012306 150.08
3.8275156 2.2026973 -1.9661649 150.08
23.088669 13.2873 -1.2422868 150.08
4.0643787 2.3390098 -1.9587194 150.08
32.678772 18.806311 -0.87537187 150.08
4.3371 2.4959581 -1.954006 150.08
4.6391239 2.6697698 -1.9481467 150.08
11.50351 6.6201563 0.30814651 150.08
4.9989424 2.8768415 -1.9488722 150.08
5.3481698 3.0778189 -1.9254624 150.08
5.8286986 3.3543582 -1.9283589 150.08
6.3455253 3.651787 -1.916607 150.08
28.540833 16.424965 3.8508604 150.08
6.9089007 3.9760039 -1.8887415 150.08
7.5486574 4.3441772 -1.8512456 150.08
8.3095455 4.7820611 -1.8063438 150.08
9.300622 5.3114371 -1.7596561 150.27
10.44976 5.9676919 -1.6912315 150.27
11.365952 6.4909143 -1.5306339 150.27
12.571536 7.1794038 -1.3506488 150.27
11.872913 6.7804322 -0.95608222 150.27
3.8316259 2.1881804 -1.964538 150.27
13.268198 7.5772567 -0.71254009 150.27
4.0673051 2.3227732 -1.956407 150.27
32.749638 18.702797 -0.87560403 150.27
4.346971 2.482486 -1.9547335 150.27
11.559768 6.6015992 0 150.27
4.6512156 2.6562352 -1.9495149 150.27
5.0183268 2.8658864 -1.9527136 150.27
5.3517156 3.0562794 -1.9230794 150.27
5.8347816 3.3321509 -1.9267051 150.27
6.3559203 3.6297648 -1.9161005 150.27
28.655518 16.36471 3.8589909 150.27
6.9169779 3.950176 -1.8873581 150.27
8.245142 4.7086697 -1.7889396 150.27
10.459495 5.9345779 -1.6901182 150.42999
11.384034 6.4591494 -1.5306339 150.42999
13.991478 7.9385786 -1.124893 150.42999
3.8472562 2.1828821 -1.9694189 150.42999
23.096424 13.104604 -1.2383739 150.42999
4.0801964 2.3150492 -1.9594903 150.42999
32.772175 18.594496 -0.87481487 150.42999
4.3619881 2.4749341 -1.9583708 150.42999
4.6635189 2.6460185 -1.9515669 150.42999
5.0180702 2.8471863 -1.9495125 150.42999
5.3535872 3.037554 -1.9206964 150.42999
5.845736 3.316793 -1.9272563 150.42999
6.3508863 3.6034086 -1.9115419 150.42999
6.9161334 3.9241221 -1.8841302 150.42999
8.2155237 4.6613789 -1.7796819 150.42999
10.469459 5.8968296 -1.6887264 150.61
11.385231 6.4126301 -1.5280786 150.61
14.000704 7.8857718 -1.1236373 150.61
3.8556869 2.1716814 -1.9702322 150.61
23.114851 13.019235 -1.2371626 150.61
4.0874491 2.3022194 -1.9594903 150.61
30.987257 17.453297 -0.82570082 150.61
4.3632488 2.4575613 -1.9554609 150.61
11.539491 6.4995155 0 150.61
4.6734462 2.632277 -1.952251 150.61
5.0269904 2.8314075 -1.9495125 150.61
5.3614397 3.0197835 -1.9201006 150.61
5.8544521 3.2974682 -1.9267051 150.61
6.3756618 3.5910349 -1.915594 150.61
6.9233403 3.8995099 -1.8827469 150.61
7.0140958 3.9506271 -1.7111132 150.61
8.2318392 4.6365104 -1.7800522 150.61
10.477243 5.8627348 -1.6873347 150.77
11.375358 6.3652911 -1.5243617 150.77
11.982038 6.7047706 -1.2809798 150.77
3.8553586 2.157337 -1.9669784 150.77
23.116249 12.935123 -1.2352993 150.77
4.08742 2.2871914 -1.956407 150.77
31.042854 17.370602 -0.82588649 150.77
4.3619657 2.4408185 -1.9518236 150.77
4.6725783 2.6146274 -1.9488307 150.77
11.439321 6.401083 0.30433995 150.77
5.0381846 2.8192091 -1.9507929 150.77
5.3631873 3.0010705 -1.9177176 150.77
5.866993 3.2829843 -1.9278077 150.77
6.3873534 3.5741615 -1.9161005 150.77
6.9257112 3.8754096 -1.8804413 150.77
7.0080285 3.9214716 -1.706955 150.77
8.1881552 4.5818329 -1.7678322 150.77
8.1476269 4.5274639 -1.5313904 150.94
10.501516 5.8354702 -1.6884481 150.94
11.366411 6.3160739 -1.5206449 150.94
14.016243 7.7885289 -1.1212655 150.94
3.8601453 2.1450009 -1.9661649 150.94
23.158018 12.86842 -1.2354857 150.94
4.1119332 2.284914 -1.9648862 150.94
31.225338 17.351259 -0.82936811 150.94
4.3805881 2.4341998 -1.9569159 150.94
11.536524 6.4106021 0 150.94
4.6786723 2.5998392 -1.9481467 150.94
5.0399022 2.8005669 -1.9482319 150.94
5.8817496 3.2683635 -1.9294615 150.94
6.4063864 3.5598931 -1.918633 150.94
6.9388804 3.8557887 -1.8809024 150.94
8.2240477 4.5699286 -1.7726462 150.94
8.2551279 4.5533166 -1.5488994 151.12
10.51286 5.798624 -1.6873347 151.12
11.375761 6.2745776 -1.5192511 151.12
14.024919 7.735785 -1.1200099 151.12
3.8668649 2.1328633 -1.9661649 151.12
23.159845 12.774376 -1.233436 151.12
4.114243 2.2693107 -1.9625736 151.12
31.465279 17.35544 -0.83428878 151.12
4.3800569 2.4159269 -1.9532785 151.12
49.201828 27.138464 0 151.12
4.6950455 2.5896664 -1.9515669 151.12
11.402925 6.2895603 0.30234382 151.12
5.0553122 2.7883801 -1.9507929 151.12
5.4131832 2.9857728 -1.9290369 151.12
5.8886213 3.2480123 -1.9283589 151.12
6.4073734 3.5341425 -1.915594 151.12
6.9543676 3.8358505 -1.8818247 151.12
8.2228746 4.5355263 -1.7693135 151.12
8.3153362 4.5544 -1.5576539 151.28999
8.5671482 4.6923203 -1.3728034 151.28999
11.361226 6.2226667 -1.5148374 151.28999
14.033811 7.686471 -1.1188939 151.28999
3.8763814 2.1231363 -1.9677919 151.28999
23.218672 12.717119 -1.2345539 151.28999
4.1209583 2.2570937 -1.9625736 151.28999
29.065029 15.919233 -0.76939142 151.28999
4.4019117 2.410975 -1.9598258 151.28999
11.529861 6.3150306 0 151.28999
4.6928182 2.5703077 -1.9474627 151.28999
11.403999 6.2460947 0.30187958 151.28999
5.0585775 2.770638 -1.9488722 151.28999
5.4186692 2.9678643 -1.9278454 151.28999
5.8982325 3.2305262 -1.9283589 151.28999
6.4246187 3.5188336 -1.9176199 151.28999
6.9640112 3.8142648 -1.8813635 151.28999
7.7244992 4.2307925 -1.8720368 151.28999
8.2500858 4.518662 -1.7722758 151.28999
8.438838 4.5876384 -1.5780811 151.47
8.4722252 4.6057887 -1.3552676 151.47
11.351049 6.170815 -1.5108883 151.47
13.014804 7.0752883 -1.3820462 151.47
14.007056 7.6147099 -1.114848 151.47
3.8782165 2.1083298 -1.9653515 151.47
23.279573 12.655563 -1.235672 151.47
4.1247859 2.2423732 -1.9610319 151.47
29.109629 15.824979 -0.76925212 151.47
4.4160113 2.4006932 -1.9627358 151.47
11.518015 6.2615829 0 151.47
4.7107768 2.5609379 -1.9515669 151.47
5.0705862 2.7565422 -1.9501526 151.47
5.4246116 2.9490025 -1.9266539 151.47
5.9066634 3.2110622 -1.9278077 151.47
6.4322424 3.4967847 -1.916607 151.47
6.9725404 3.790509 -1.8804413 151.47
7.7360339 4.2055697 -1.871621 151.47
8.303956 4.5143118 -1.7807928 151.47
8.3161688 4.4909096 -1.5527903 151.63
10.520492 5.6812916 -1.6803761 151.63
11.371734 6.1409802 -1.5113529 151.63
11.932386 6.4437451 -1.2651881 151.63
14.038799 7.5812535 -1.115685 151.63
3.8712277 2.0905461 -1.9588437 151.63
23.307791 12.586708 -1.2352993 151.63
4.1326556 2.2317228 -1.9618028 151.63
11.558738 6.2419672 -0.30498984 151.63
4.4079447 2.3803849 -1.9561884 151.63
4.7129493 2.5450938 -1.9495149 151.63
5.0699282 2.7378702 -1.9469515 151.63
5.4412255 2.9383786 -1.9296325 151.63
5.9189906 3.1963823 -1.9289103 151.63
6.4368749 3.4760506 -1.9150875 151.63
6.9745364 3.7663996 -1.8781357 151.63
7.7443051 4.1820912 -1.8707894 151.63
8.3044243 4.4845676 -1.7782007 151.63
8.331975 4.465694 -1.5531145 151.81
10.517341 5.6369853 -1.6770358 151.81
11.368209 6.0930257 -1.508333 151.81
13.992208 7.4994121 -1.1101046 151.81
3.8761659 2.0775111 -1.9580302 151.81
11.667446 6.2534084 -0.61732358 151.81
4.1250072 2.2108827 -1.9548652 151.81
11.567717 6.1999564 -0.30471131 151.81
4.4186854 2.3682854 -1.9576434 151.81
50.720234 27.184555 0 151.81
4.7176085 2.5284996 -1.9481467 151.81
5.0801744 2.7228241 -1.9475918 151.81
5.4571605 2.9248776 -1.9320155 151.81
5.9256144 3.1759551 -1.9278077 151.81
6.452879 3.4585536 -1.916607 151.81
6.9794731 3.7407925 -1.8762913 151.81
7.7574053 4.1577411 -1.8707894 151.81
8.2457161 4.4194613 -1.762648 151.81
8.4026814 4.4715481 -1.5638145 151.98
10.523529 5.6001725 -1.6753658 151.98
11.379223 6.0555358 -1.5074037 151.98
14.035533 7.4691105 -1.1117787 151.98
3.8984423 2.0745842 -1.9661649 151.98
11.648912 6.1990533 -0.61536705 151.98
4.1429529 2.2047026 -1.9602611 151.98
29.182261 15.529552 -0.76748812 151.98
4.4273372 2.3560398 -1.9583708 151.98
51.106113 27.196489 0 151.98
4.7201128 2.5118423 -1.9460946 151.98
5.0865579 2.7068489 -1.9469515 151.98
5.4489608 2.899704 -1.9260581 151.98
5.9401031 3.1610689 -1.9294615 151.98
6.4511566 3.4330297 -1.9130615 151.98
6.9956956 3.7228103 -1.8776746 151.98
7.7679806 4.1337872 -1.8703736 151.98
8.3646297 4.4512987 -1.7852365 151.98
9.551877 5.0467911 -1.7748954 152.14999
10.547103 5.5726247 -1.6764792 152.14999
11.374307 6.0096827 -1.5043838 152.14999
11.757324 6.2120523 -0.9298538 152.14999
3.9078114 2.0647154 -1.9677919 152.14999
23.512917 12.42319 -1.240144 152.14999
4.1494761 2.1924005 -1.9602611 152.14999
29.222906 15.440096 -0.76734889 152.14999
4.4343085 2.3428931 -1.9583708 152.14999
4.7208977 2.4943144 -1.9433584 152.14999
5.0928917 2.6908598 -1.9463112 152.14999
5.4862375 2.8986862 -1.9361858 152.14999
5.9443564 3.1407361 -1.9278077 152.14999
6.4578924 3.412066 -1.9120485 152.14999
7.0290799 3.7138562 -1.8836691 152.14999
7.7871304 4.1143765 -1.8720368 152.14999
8.4177694 4.4475784 -1.7937535 152.14999
8.4117985 4.4162927 -1.5608963 152.3
10.531846 5.5293427 -1.6717473 152.3
11.363619 5.9660335 -1.5008993 152.3
11.793581 6.1917686 -1.2427083 152.3
14.041699 7.372057 -1.1089884 152.3
3.9132032 2.0544777 -1.9677919 152.3
23.506445 12.34116 -1.2380943 152.3
4.1568356 2.1823876 -1.9610319 152.3
29.144617 15.301266 -0.7642386 152.3
4.4354782 2.3286781 -1.9561884 152.3
4.7423878 2.4898093 -1.9495149 152.3
11.650412 6.1166029 0.30550048 152.3
5.0982413 2.6766365 -1.9456711 152.3
5.4904265 2.8825386 -1.9349943 152.3
5.9627714 3.1305249 -1.9311153 152.3
6.4616642 3.3924494 -1.9105289 152.3
7.0387788 3.6954412 -1.8836691 152.3
7.7909465 4.0903382 -1.8703736 152.3
8.4641876 4.4437976 -1.8011596 152.3
8.3528805 4.3500872 -1.5472782 152.49001
10.546611 5.4925575 -1.6711906 152.49001
11.332247 5.9017081 -1.4941626 152.49001
11.837009 6.1645832 -1.2451235 152.49001
14.007674 7.2950411 -1.1043845 152.49001
3.9135127 2.0381141 -1.964538 152.49001
23.559645 12.269602 -1.2387465 152.49001
4.1575027 2.1651812 -1.9579486 152.49001
11.734472 6.1111832 -0.30717164 152.49001
4.4563951 2.3208411 -1.9620082 152.49001
11.734087 6.1109824 0 152.49001
4.750618 2.4740691 -1.9495149 152.49001
11.674177 6.079782 0.30559331 152.49001
5.1171722 2.6649666 -1.9495125 152.49001
5.5016484 2.8651977 -1.9355901 152.49001
5.9628892 3.1054063 -1.9278077 152.49001
6.4728785 3.3710032 -1.9105289 152.49001
7.0561724 3.6747763 -1.8850526 152.49001
7.7992625 4.0617695 -1.8691261 152.49001
8.3376789 4.3421707 -1.7711649 152.49001
10.539182 5.4466672 -1.6672938 152.67
11.36132 5.8715501 -1.4955564 152.67
11.83626 6.1169996 -0.93166745 152.67
3.9280121 2.0300035 -1.9686054 152.67
11.788388 6.0922599 -0.61881423 152.67
4.1708422 2.1554985 -1.9610319 152.67
11.755389 6.0752058 -0.30721807 152.67
4.4636641 2.3068295 -1.9620082 152.67
4.7600369 2.4599955 -1.9501989 152.67
5.1187863 2.6453979 -1.9469515 152.67
5.4817891 2.8329983 -1.9254624 152.67
5.9760313 3.0884235 -1.9289103 152.67
6.4799991 3.3488748 -1.909516 152.67
7.0745978 3.6561646 -1.886897 152.67
7.7980809 4.0300622 -1.8657995 152.67
8.2692156 4.2735448 -1.7537607 152.67
10.553534 5.4144692 -1.6670154 152.84
11.391063 5.844162 -1.4971825 152.84
11.867359 6.0885243 -1.2443804 152.84
14.04665 7.2066054 -1.103966 152.84
3.929141 2.0158379 -1.9661649 152.84
23.632378 12.124544 -1.2386533 152.84
4.1870713 2.1481683 -1.965657 152.84
29.285751 15.024996 -0.76419222 152.84
4.4622011 2.2893233 -1.9583708 152.84
4.770659 2.447577 -1.9515669 152.84
5.1299844 2.6319282 -1.9482319 152.84
53.768768 27.585958 2.8182042 152.84
5.5173497 2.8306651 -1.9349943 152.84
5.983458 3.0698011 -1.9283589 152.84
6.4916282 3.3305168 -1.9100224 152.84
7.0854149 3.6351578 -1.886897 152.84
7.8047824 4.0042281 -1.864552 152.84
8.4007702 4.3099985 -1.7789413 152.84
8.3892441 4.2708454 -1.5466297 153.02
10.556372 5.3740993 -1.6647886 153.02
11.404056 5.8056436 -1.4964856 153.02
13.354041 6.7983532 -1.3980236 153.02
14.047885 7.1515794 -1.1022918 153.02
3.9256852 1.9985107 -1.961284 153.02
23.641865 12.035739 -1.2371626 153.02
4.1888652 2.1324921 -1.9633445 153.02
29.375574 14.954689 -0.76530629 153.02
4.4643903 2.272758 -1.9561884 153.02
32.766354 16.680885 0 153.02
4.7632513 2.4249039 -1.9454106 153.02
5.133162 2.6132202 -1.9463112 153.02
5.5279169 2.8141842 -1.9355901 153.02
6.0050654 3.0570939 -1.9322178 153.02
6.5020595 3.3101063 -1.9100224 153.02
7.8173237 3.9796886 -1.864552 153.02
8.3757362 4.2639685 -1.7707946 153.02
9.6340094 4.8707099 -1.7735984 153.17999
10.55543 5.3365569 -1.6622835 153.17999
11.404269 5.7657084 -1.4943949 153.17999
3.9345119 1.989189 -1.962911 153.17999
23.671818 11.967869 -1.2369763 153.17999
4.1964507 2.1216187 -1.9641154 153.17999
29.468967 14.898761 -0.76665252 153.17999
4.4773703 2.2636445 -1.9590983 153.17999
33.094814 16.731895 0 153.17999
4.7750359 2.4141366 -1.9474627 153.17999
11.659112 5.8945503 0.30331865 153.17999
5.1438212 2.6005852 -1.9475918 153.17999
5.5255308 2.7935679 -1.9320155 153.17999
6.0067163 3.0368428 -1.9300128 153.17999
6.4940109 3.2832067 -1.9049574 153.17999
6.8654504 3.4709971 -1.8228015 153.17999
7.8231688 3.9551952 -1.8633046 153.17999
8.4718027 4.2831278 -1.7885692 153.17999
9.6484184 4.842104 -1.7735984 153.35001
10.565907 5.3025498 -1.6614485 153.35001
11.415999 5.7291727 -1.493698 153.35001
11.894386 5.9692531 -1.2415936 153.35001
14.058528 7.0553379 -1.09992 153.35001
3.9354975 1.9750478 -1.9604707 153.35001
23.739363 11.913711 -1.2386533 153.35001
4.1977792 2.1066751 -1.9618028 153.35001
29.387951 14.748481 -0.76340306 153.35001
4.4857321 2.2511854 -1.9598258 153.35001
4.7888966 2.4033303 -1.9501989 153.35001
5.148128 2.583612 -1.9463112 153.35001
5.5372081 2.7788737 -1.933207 153.35001
6.0174184 3.0198696 -1.930564 153.35001
6.4898896 3.2569814 -1.9009054 153.35001
6.9974747 3.5117154 -1.8550798 153.35001
7.8348699 3.9319661 -1.8633046 153.35001
8.5108223 4.2711964 -1.7941238 153.35001
9.6645088 4.8143353 -1.7739227 153.52
10.578049 5.2694106 -1.6608918 153.52
11.411612 5.6846466 -1.4909104 153.52
14.065113 7.0064778 -1.098804 153.52
3.9397049 1.9625477 -1.9596572 153.52
23.747784 11.82986 -1.2372558 153.52
4.210619 2.0975022 -1.9648862 153.52
29.463795 14.677267 -0.7642386 153.52
4.4973941 2.2403584 -1.9620082 153.52
11.705988 5.8312893 0 153.52
4.7943244 2.3882728 -1.9495149 153.52
11.636616 5.7967315 0.30183318 153.52
5.1506829 2.5657914 -1.9443905 153.52
5.5351753 2.7573245 -1.9296325 153.52
6.0280728 3.0028596 -1.9311153 153.52
6.4856701 3.2308097 -1.8968533 153.52
6.9103141 3.4423442 -1.8292571 153.52
7.8342443 3.9025962 -1.8603938 153.52
8.5129032 4.2406673 -1.7919019 153.52
9.6795864 4.7839494 -1.7739227 153.7
10.580346 5.2291327 -1.6586651 153.7
11.408044 5.6382065 -1.4881227 153.7
12.057379 5.9591274 -1.2547842 153.7
3.9622307 1.9582564 -1.9677919 153.7
13.857171 6.8486404 -0.72083193 153.7
4.2155333 2.0834463 -1.9641154 153.7
28.523891 14.097384 -0.73870677 153.7
4.4977298 2.2229164 -1.9590983 153.7
33.139519 16.378571 0 153.7
4.8102279 2.3773627 -1.952935 153.7
11.633259 5.7495146 0.30127612 153.7
5.1553211 2.5479183 -1.9431101 153.7
5.5540795 2.7449973 -1.933207 153.7
6.0236888 2.9770925 -1.9267051 153.7
6.4767084 3.2009885 -1.8912818 153.7
7.0711355 3.4947729 -1.8689134 153.7
7.8412046 3.8753645 -1.8591464 153.7
8.5120878 4.2069354 -1.7889396 153.7
9.6972818 4.756947 -1.7745712 153.87
10.590481 5.1951003 -1.65783 153.87
11.419373 5.6017089 -1.4874258 153.87
14.010924 6.8729801 -1.0912703 153.87
3.9729445 1.9489056 -1.9702322 153.87
23.855476 11.70217 -1.2391192 153.87
4.2216964 2.0709293 -1.9641154 153.87
28.506353 13.983631 -0.73717481 153.87
4.5109959 2.2128437 -1.9620082 153.87
11.700091 5.7394142 0 153.87
4.8155732 2.3622522 -1.952251 153.87
11.635906 5.7079282 0.30090475 153.87
5.162858 2.5326111 -1.9431101 153.87
64.486916 31.633694 3.349628 153.87
5.5587716 2.726824 -1.9320155 153.87
64.439148 31.610262 5.0189781 153.87
6.0393996 2.9625936 -1.9289103 153.87
6.4983368 3.1877224 -1.8948274 153.87
6.9626632 3.4154952 -1.8375573 153.87
7.845643 3.8486359 -1.857483 153.87
8.5210028 4.1799302 -1.7881989 153.87
8.5846014 4.1795735 -1.5686781 154.03999
10.589822 5.1558523 -1.6553248 154.03999
11.434156 5.5669327 -1.4871936 154.03999
14.065338 6.8479724 -1.0939211 154.03999
3.9819949 1.9387087 -1.9718592 154.03999
23.927814 11.649703 -1.2410756 154.03999
4.2261629 2.0575864 -1.9633445 154.03999
28.43626 13.844725 -0.73429668 154.03999
4.5141916 2.1978185 -1.9605533 154.03999
33.577785 16.347971 0 154.03999
4.8225608 2.3479538 -1.952251 154.03999
11.620432 5.6576242 0.30006915 154.03999
5.1669426 2.5156226 -1.9418297 154.03999
5.5496721 2.7019615 -1.9260581 154.03999
6.0550776 2.9480276 -1.9311153 154.03999
6.4990683 3.1641927 -1.8922949 154.03999
7.1424923 3.4774559 -1.8822858 154.03999
7.8605452 3.8270533 -1.8583146 154.03999
8.5333672 4.1546292 -1.7881989 154.03999
10.6024 5.1208353 -1.6547682 154.22
11.433702 5.5223441 -1.4848706 154.22
14.07241 6.7968097 -1.0928049 154.22
3.9897113 1.926984 -1.9726727 154.22
23.984083 11.584032 -1.2421005 154.22
4.2309442 2.0434966 -1.9625736 154.22
28.470612 13.750973 -0.73406458 154.22
4.5210738 2.1836259 -1.9605533 154.22
11.675503 5.6391311 0 154.22
4.8299131 2.3327918 -1.952251 154.22
11.609341 5.6071758 0.29932642 154.22
5.161171 2.4927852 -1.9367077 154.22
5.5650101 2.6878347 -1.928441 154.22
6.0591154 2.926482 -1.9294615 154.22
6.5072346 3.1429183 -1.8917884 154.22
7.1568866 3.4566927 -1.883208 154.22
7.8813376 3.8065939 -1.8603938 154.22
8.5446081 4.126946 -1.7878287 154.22
8.6395044 4.1430655 -1.5741903 154.38
10.598801 5.082644 -1.6519847 154.38
11.458034 5.4946885 -1.486032 154.38
14.053556 6.7393689 -1.0898751 154.38
3.0362585 1.4560347 -1.4992312 154.38
24.034353 11.52565 -1.2430322 154.38
4.2399626 2.0332696 -1.9641154 154.38
28.631496 13.730206 -0.73722124 154.38
4.527154 2.1709921 -1.9605533 154.38
33.993397 16.3015 0 154.38
4.8296304 2.3160443 -1.9495149 154.38
32.451794 15.562225 0.83558857 154.38
5.1681118 2.4783628 -1.9367077 154.38
33.019764 15.834595 1.7077484 154.38
5.5776587 2.6747606 -1.9302284 154.38
6.0655308 2.9087191 -1.9289103 154.38
6.5247087 3.1289175 -1.8943208 154.38
7.1542282 3.4308028 -1.8799802 154.38
7.8831172 3.7803409 -1.8583146 154.38
8.5560989 4.1030688 -1.7878287 154.38
8.796834 4.1845722 -1.6004537 154.56
8.8083363 4.1900439 -1.3708551 154.56
11.27971 5.3656535 -1.4607111 154.56
14.080065 6.6977563 -1.0902936 154.56
