# .PCD v0.7 - Point Cloud Data file format
VERSION 0.7
FIELDS x y z intensity
SIZE 4 4 4 4
TYPE F F F F
COUNT 1 1 1 1
WIDTH 1250
HEIGHT 1
VIEWPOINT 0 0 0 1 0 0 0
POINTS 1250
DATA ascii
4.392745 2.7855704 -2.0311186 147.62
4.6583405 2.9539924 -2.0076582 147.62
4.9428625 3.1344161 -1.9776827 147.62
5.2466073 3.3270297 -1.9385688 147.62
5.6777282 3.6004164 -1.9278077 147.62
6.2335892 3.9529042 -1.9323086 147.62
6.8403487 4.3376689 -1.9191753 147.62
7.3601966 4.6673198 -1.8524932 147.62
7.9538875 5.043797 -1.7744976 147.62
8.2455425 5.1945052 -1.6011022 147.78999
10.180072 6.4132147 -1.6909531 147.78999
11.531604 7.2646494 -1.5938199 147.78999
12.397373 7.8100648 -1.3669977 147.78999
13.661616 8.6065092 -1.1290783 147.78999
2.9789529 1.876673 -1.5675631 147.78999
13.328514 8.3966627 -0.73462063 147.78999
13.314029 8.387537 -0.36533791 147.78999
4.3962622 2.7695456 -2.0289361 147.78999
11.55096 7.2768431 0 147.78999
4.6575437 2.9341474 -2.0035541 147.78999
4.9393153 3.1116571 -1.9725609 147.78999
5.2645326 3.3165364 -1.9415476 147.78999
5.6802526 3.5784307 -1.9250513 147.78999
6.2371049 3.929235 -1.9297761 147.78999
6.8219032 4.2976446 -1.910414 147.78999
7.3591156 4.6360765 -1.8487507 147.78999
7.9605031 5.0149369 -1.7726462 147.78999
10.26901 6.4242682 -1.7023654 147.97
11.535845 7.2167974 -1.5912646 147.97
12.41003 7.7636857 -1.3656973 147.97
13.676747 8.5561409 -1.1281017 147.97
3.0111661 1.8837785 -1.581392 147.97
13.642756 8.5348759 -0.75045902 147.97
13.348788 8.3509703 -0.36557001 147.97
4.3954644 2.7497923 -2.0245714 147.97
4.650806 2.9095333 -1.9967136 147.97
4.9587045 3.1021538 -1.9764023 147.97
5.2749257 3.2999811 -1.9415476 147.97
5.6898365 3.5595484 -1.9245 147.97
6.2510586 3.9106474 -1.9302826 147.97
6.8403206 4.2792883 -1.9117974 147.97
7.3620343 4.6056714 -1.84584 147.97
7.9628887 4.9815645 -1.7696837 147.97
9.0639544 5.635232 -1.7534955 148.13
10.268408 6.3840637 -1.6993035 148.13
11.535708 7.1719689 -1.5884769 148.13
12.42828 7.7268972 -1.3653257 148.13
13.700587 8.5179148 -1.1281017 148.13
2.9496939 1.8338805 -1.5464127 148.13
13.495175 8.3902063 -0.74104917 148.13
13.467147 8.3727808 -0.36816964 148.13
4.4078727 2.740458 -2.0267537 148.13
11.55657 7.1849389 0 148.13
4.6493363 2.8905804 -1.9926094 148.13
4.9641299 3.0862937 -1.9751219 148.13
5.2824993 3.2842298 -1.9409518 148.13
5.7062855 3.5477057 -1.9267051 148.13
6.2488093 3.8850033 -1.9262305 148.13
6.8489385 4.2581148 -1.9108752 148.13
7.3632374 4.5778642 -1.8429292 148.13
7.9717617 4.9561954 -1.7685728 148.13
9.068881 5.6010547 -1.7512258 148.3
10.255288 6.3337951 -1.694015 148.3
11.558628 7.1387539 -1.5887092 148.3
12.349496 7.6272039 -1.3541787 148.3
13.730893 8.4803724 -1.1285203 148.3
2.9815488 1.841442 -1.5602418 148.3
13.514911 8.3469791 -0.74076962 148.3
13.544666 8.3653564 -0.3696087 148.3
4.4112291 2.7244308 -2.0245714 148.3
14.314046 8.8405352 0 148.3
4.6642885 2.8807232 -1.9953455 148.3
64.739487 39.983925 1.76662 148.3
4.971653 3.0705554 -1.9744816 148.3
5.2970934 3.2715516 -1.9427391 148.3
64.614471 39.906708 5.3105602 148.3
5.7184219 3.5317695 -1.9272563 148.3
6.2537246 3.8623791 -1.9242045 148.3
6.8648539 4.23982 -1.9117974 148.3
7.3634725 4.5477734 -1.8396026 148.3
7.979743 4.9283895 -1.7670916 148.3
9.087142 5.5751543 -1.7515501 148.47
10.262218 6.2960892 -1.6920666 148.47
11.564519 7.0950785 -1.5866185 148.47
12.343217 7.5728254 -1.3510203 148.47
13.796808 8.4646349 -1.1318686 148.47
13.58219 8.3329611 -0.7430988 148.47
4.1496406 2.5458927 -2.0334914 148.47
4.4224691 2.7132788 -2.0260262 148.47
11.573432 7.1005464 0 148.47
4.6776209 2.8698199 -1.9973977 148.47
81.709694 50.130634 2.2256367 148.47
4.9678216 3.047864 -1.9693598 148.47
81.729836 50.14299 4.4715433 148.47
5.3018951 3.2528253 -1.9409518 148.47
5.7337918 3.5178032 -1.9289103 148.47
6.2717533 3.8478539 -1.9262305 148.47
6.8624744 4.2102737 -1.9076474 148.47
7.3685961 4.5207901 -1.8375236 148.47
7.9943309 4.9046917 -1.7670916 148.47
9.0911283 5.5383649 -1.7489561 148.64999
9.5461941 5.8155932 -1.5709859 148.64999
11.568091 7.0473437 -1.5840632 148.64999
12.474086 7.5992808 -1.3627247 148.64999
13.801182 8.4077549 -1.1300548 148.64999
2.9584141 1.802282 -1.5423454 148.64999
13.698727 8.3453388 -0.74803668 148.64999
2.865258 1.7455307 -1.4013978 148.64999
13.516967 8.2346096 -0.3674733 148.64999
4.4357448 2.7022796 -2.0282087 148.64999
13.903204 8.4699068 0 148.64999
4.6882186 2.8560882 -1.9980817 148.64999
4.9789901 3.0332279 -1.9699999 148.64999
5.3055658 3.2321796 -1.9385688 148.64999
5.7448153 3.4997725 -1.9289103 148.64999
6.2854633 3.8291383 -1.9267371 148.64999
6.8640332 4.1816063 -1.9044195 148.64999
7.3710675 4.4904943 -1.8346127 148.64999
8.0063429 4.8775077 -1.766351 148.64999
9.1024551 5.5083013 -1.7479835 148.82001
9.5651016 5.788269 -1.5712643 148.82001
11.55666 6.9934492 -1.5796494 148.82001
12.33132 7.4622312 -1.3447037 148.82001
13.860207 8.3874283 -1.1328452 148.82001
13.672151 8.2736273 -0.74524164 148.82001
2.8577933 1.729378 -1.3952311 148.82001
13.252244 8.0195227 -0.35962805 148.82001
4.4357734 2.684284 -2.0245714 148.82001
11.563547 6.9976172 0 148.82001
4.6854167 2.8353543 -1.9932934 148.82001
4.984726 3.0164797 -1.9687195 148.82001
5.3216662 3.2203772 -1.9409518 148.82001
5.7568188 3.4837074 -1.9294615 148.82001
6.2785883 3.7994535 -1.9211655 148.82001
6.8747454 4.1602144 -1.9039583 148.82001
7.3726425 4.4615145 -1.831702 148.82001
8.0275049 4.857801 -1.7678322 148.82001
9.1136847 5.478219 -1.7470107 148.99001
11.573954 6.9570823 -1.5791849 148.99001
12.409729 7.459466 -1.3508345 148.99001
13.869641 8.3370161 -1.1315895 148.99001
2.9267762 1.7592798 -1.5203816 148.99001
13.527122 8.1311283 -0.73601812 148.99001
2.8692386 1.7246941 -1.3983145 148.99001
13.443921 8.0811167 -0.36417738 148.99001
4.4357347 2.666312 -2.0209339 148.99001
4.693809 2.82144 -1.9932934 148.99001
4.9871583 2.9977717 -1.9661585 148.99001
5.3328342 3.2055571 -1.9415476 148.99001
5.7720728 3.4695826 -1.9311153 148.99001
6.2384276 3.7499075 -1.9054639 148.99001
6.8503633 4.1177411 -1.8938137 148.99001
7.3858476 4.4396195 -1.831702 148.99001
8.0368299 4.830924 -1.7667212 148.99001
9.1417599 5.4582362 -1.7492803 149.16
10.184251 6.0806727 -1.6670154 149.16
11.52291 6.8799405 -1.5694282 149.16
11.682924 6.9754796 -1.2694612 149.16
13.849778 8.2692347 -1.1279622 149.16
2.8096211 1.6775299 -1.4569306 149.16
2.9171257 1.7417173 -1.4191273 149.16
4.4564228 2.6607797 -2.0267537 149.16
4.7134552 2.814245 -1.9980817 149.16
4.9878969 2.9781048 -1.9629574 149.16
5.3439612 3.1906989 -1.9421433 149.16
5.7790408 3.4504702 -1.9300128 149.16
6.2661386 3.7412999 -1.9105289 149.16
6.8191061 4.0714583 -1.8818247 149.16
7.3872299 4.4106655 -1.8287913 149.16
8.0443783 4.8030267 -1.7652401 149.16
9.155467 5.4274769 -1.7486318 149.34
11.602566 6.8781481 -1.5773265 149.34
13.78816 8.1737967 -1.120847 149.34
2.7740135 1.6444705 -1.4357804 149.34
13.717461 8.1318846 -0.74365783 149.34
2.9606831 1.7551304 -1.4376276 149.34
13.563553 8.0406466 -0.36608064 149.34
4.4551444 2.6410661 -2.0223889 149.34
4.717423 2.7965481 -1.9960296 149.34
5.0004878 2.9643526 -1.9642378 149.34
5.3490314 3.1709738 -1.9403561 149.34
5.7650456 3.417592 -1.9217436 149.34
6.3244624 3.7492216 -1.924711 149.34
6.823493 4.045053 -1.8795191 149.34
7.4111471 4.3934221 -1.8312862 149.34
8.0306864 4.7606926 -1.7589449 149.34
9.1851358 5.408299 -1.7512258 149.50999
10.147819 5.9751368 -1.6550465 149.50999
11.629769 6.847724 -1.5782557 149.50999
12.482065 7.3495641 -1.3513919 149.50999
13.822667 8.1389246 -1.1216841 149.50999
2.8182416 1.6594087 -1.4561172 149.50999
13.574536 7.9928217 -0.73462063 149.50999
3.0326695 1.785666 -1.4700031 149.50999
13.595965 8.0054398 -0.36631277 149.50999
4.4677773 2.6306717 -2.0245714 149.50999
4.7240801 2.7815855 -1.9953455 149.50999
11.518063 6.7819495 0.31032833 149.50999
5.0010977 2.9446959 -1.9610367 149.50999
5.3682876 3.1609013 -1.9439306 149.50999
5.7751603 3.4004719 -1.9217436 149.50999
6.3005466 3.7098243 -1.9140744 149.50999
6.8455267 4.0307145 -1.8822858 149.50999
7.3921204 4.3525538 -1.8233855 149.50999
8.0684872 4.7508054 -1.7641292 149.50999
9.2045488 5.3830152 -1.7518743 149.67999
10.146697 5.9340029 -1.6519847 149.67999
11.626029 6.7991481 -1.5750035 149.67999
11.745749 6.869163 -1.2694612 149.67999
13.826089 8.0857897 -1.1200099 149.67999
2.868891 1.6777881 -1.479708 149.67999
13.48437 7.8859453 -0.72847164 149.67999
4.2056627 2.4595606 -2.0350332 149.67999
13.545442 7.9216609 -0.36431664 149.67999
2.9751318 1.73992 -1.3458344 149.67999
11.622386 6.7970171 0 149.67999
4.7323127 2.7675567 -1.9953455 149.67999
5.0212617 2.9365401 -1.9655184 149.67999
5.3759947 3.1439955 -1.9433348 149.67999
5.7785859 3.3794396 -1.9195385 149.67999
6.3482695 3.7126024 -1.9252175 149.67999
6.8708954 4.0182452 -1.8859748 149.67999
7.4286437 4.3444281 -1.8292071 149.67999
8.0757608 4.7228761 -1.762648 149.67999
9.2026405 5.3431711 -1.7483076 149.86
10.064236 5.8434243 -1.6355623 149.86
11.633589 6.7546105 -1.573145 149.86
12.547394 7.2851777 -1.3536212 149.86
13.711666 7.9611692 -1.1087093 149.86
2.8314857 1.643997 -1.4577441 149.86
13.638658 7.9187794 -0.73545915 149.86
2.9621263 1.7198484 -1.4306899 149.86
13.596198 7.8941269 -0.36501294 149.86
2.9886386 1.735242 -1.3494717 149.86
4.7312322 2.747014 -1.9912412 149.86
11.528152 6.6933923 0.30949274 149.86
5.027185 2.9188483 -1.9642378 149.86
5.3858452 3.1270909 -1.9433348 149.86
5.8074627 3.3718874 -1.9256026 149.86
6.3498621 3.6868114 -1.9221785 149.86
6.8616061 3.9839365 -1.8799802 149.86
7.4388719 4.3191047 -1.8283755 149.86
8.0837593 4.6935344 -1.7611667 149.86
9.193593 5.3036456 -1.7437682 150.02
10.133696 5.8459764 -1.644191 150.02
11.642081 6.7161417 -1.5717512 150.02
12.54009 7.234189 -1.3506488 150.02
13.89975 8.0185566 -1.1221026 150.02
2.7490213 1.585869 -1.4130031 150.02
13.942792 8.0433865 -0.75064534 150.02
2.9637203 1.7097256 -1.4291483 150.02
4.4829473 2.5861449 -2.0209339 150.02
11.605346 6.6949492 0 150.02
4.7258611 2.7262783 -1.9857689 150.02
5.0353165 2.9047983 -1.9642378 150.02
5.3912492 3.1101305 -1.9421433 150.02
5.8151913 3.3546963 -1.9250513 150.02
6.3701887 3.674866 -1.9252175 150.02
6.8794475 3.9686496 -1.8818247 150.02
7.4525986 4.2992921 -1.8287913 150.02
8.1019421 4.6738887 -1.7622776 150.02
7.769937 4.4498849 -1.4710816 150.2
10.22935 5.8584042 -1.6567166 150.2
11.654505 6.6745977 -1.5705898 150.2
12.542019 7.1828818 -1.3484193 150.2
13.623625 7.8023238 -1.0978274 150.2
2.7809432 1.5926611 -1.4268322 150.2
13.730483 7.8635216 -0.73788148 150.2
2.9866927 1.7104951 -1.4376276 150.2
14.071363 8.0587463 -0.37647909 150.2
4.4926662 2.5729744 -2.0216615 150.2
4.7246175 2.7058141 -1.9816647 150.2
11.487854 6.5791564 0.30735734 150.2
5.0427732 2.8880234 -1.9635977 150.2
5.4026499 3.0941269 -1.9427391 150.2
5.834043 3.341188 -1.9278077 150.2
6.3699493 3.6481044 -1.921672 150.2
6.8868151 3.9441164 -1.8804413 150.2
7.4643707 4.2748857 -1.8283755 150.2
8.1131744 4.6464591 -1.7615371 150.2
10.293169 5.854465 -1.6642319 150.37
11.658717 6.6311498 -1.568499 150.37
12.528656 7.125947 -1.3447037 150.37
13.34149 7.5882635 -1.0732731 150.37
2.9476502 1.6765404 -1.5098064 150.37
13.515841 7.6874304 -0.72511762 150.37
3.1633997 1.7992526 -1.5201081 150.37
13.956172 7.9378777 -0.37276536 150.37
4.5002809 2.559633 -2.0216615 150.37
11.611257 6.604156 0 150.37
4.7407932 2.6964297 -1.9850849 150.37
5.0332031 2.8627441 -1.956555 150.37
5.4201045 3.0828028 -1.9457178 150.37
5.8405886 3.3219624 -1.9267051 150.37
6.3656092 3.6205792 -1.9171134 150.37
6.8934126 3.9207788 -1.879058 150.37
7.4906259 4.260457 -1.831702 150.37
8.1047163 4.6097341 -1.756723 150.37
7.766994 4.3871984 -1.4655695 150.53999
10.329464 5.8346133 -1.6672938 150.53999
11.664504 6.5887127 -1.5666406 150.53999
12.548011 7.0877628 -1.3445178 150.53999
2.9828377 1.6848603 -1.5252624 150.53999
4.5062337 2.5453529 -2.0209339 150.53999
4.7569547 2.6869731 -1.9885051 150.53999
5.0416746 2.8477976 -1.956555 150.53999
5.4159288 3.0591958 -1.9409518 150.53999
5.850419 3.3046184 -1.9267051 150.53999
6.3712697 3.5988216 -1.915594 150.53999
6.8982372 3.8964798 -1.8772135 150.53999
7.4947171 4.2334023 -1.8296229 150.53999
6.9392791 3.9196625 -1.5015835 150.53999
7.8805799 4.4187589 -1.4843755 150.72
10.365018 5.81182 -1.6700772 150.72
10.565839 5.9244232 -1.4165739 150.72
12.528529 7.0249329 -1.340059 150.72
14.195062 7.9593825 -1.1380072 150.72
2.8574357 1.6022068 -1.4585576 150.72
13.606113 7.6291509 -0.72744679 150.72
2.8861949 1.6183326 -1.3821267 150.72
14.187522 7.9551554 -0.37763962 150.72
4.5142078 2.5311837 -2.0209339 150.72
11.599048 6.5037594 0 150.72
4.7784867 2.679369 -1.9939774 150.72
5.0555544 2.8347249 -1.9584757 150.72
5.4255128 3.042166 -1.9409518 150.72
5.8574185 3.2843418 -1.9256026 150.72
6.3926702 3.5844655 -1.918633 150.72
6.898562 3.8681266 -1.8739856 150.72
7.4994478 4.2050524 -1.8275437 150.72
6.8778429 3.8565092 -1.4856604 150.72
6.9756722 3.8857992 -1.3118792 150.88
10.367365 5.7751422 -1.6678505 150.88
12.53418 6.9821668 -1.3385727 150.88
2.8650911 1.5959995 -1.4601846 150.88
13.772225 7.6718206 -0.73517966 150.88
2.9148862 1.6237378 -1.3936894 150.88
11.628009 6.4773841 -0.30902851 150.88
4.5212584 2.5185678 -2.0209339 150.88
4.7843084 2.6650999 -1.9932934 150.88
5.0535192 2.8150637 -1.9546343 150.88
5.4189758 3.0186412 -1.9355901 150.88
5.8548102 3.2614231 -1.9217436 150.88
6.404345 3.5675414 -1.9191395 150.88
6.9195375 3.8545296 -1.8767524 150.88
6.9044576 3.8461292 -1.6799265 150.88
6.9418125 3.8669376 -1.4971398 150.88
9.2917967 5.137814 -1.7444167 151.06
10.383724 5.7415857 -1.6675721 151.06
11.683836 6.4604707 -1.5612977 151.06
12.543855 6.9360099 -1.3372723 151.06
14.105856 7.7997046 -1.1271251 151.06
2.8876791 1.5967159 -1.4691328 151.06
2.8699069 1.5868889 -1.3697932 151.06
34.302731 18.967382 -0.91004884 151.06
4.5209966 2.4998438 -2.0172966 151.06
4.7696319 2.6373243 -1.9837168 151.06
11.552063 6.3876081 0.30647534 151.06
5.0623379 2.7991738 -1.9546343 151.06
5.4384575 3.0071454 -1.9391646 151.06
5.8667102 3.2439439 -1.922295 151.06
6.4087486 3.543659 -1.9171134 151.06
6.9094725 3.8205299 -1.8707578 151.06
6.9045224 3.8177929 -1.6770157 151.06
6.9522066 3.8441594 -1.4967695 151.06
7.8046761 4.2871099 -1.4629755 151.22
10.382358 5.7030311 -1.6647886 151.22
10.745976 5.9027667 -1.4337642 151.22
12.521286 6.8779445 -1.3328135 151.22
14.061131 7.7237821 -1.1218237 151.22
2.8841197 1.5842475 -1.4650654 151.22
13.934829 7.6544037 -0.74142182 151.22
34.374844 18.882107 -0.91055948 151.22
4.524694 2.4854152 -2.0158417 151.22
11.567715 6.3541474 0 151.22
4.778625 2.6248996 -1.9844009 151.22
5.0651531 2.7822895 -1.9527136 151.22
5.4501805 2.9937849 -1.9403561 151.22
5.8656359 3.2219946 -1.9189873 151.22
6.4237065 3.5285432 -1.918633 151.22
6.8979402 3.7890399 -1.8647633 151.22
6.8842936 3.7815435 -1.6695309 151.22
6.8199353 3.7461915 -1.4660343 151.22
7.7529993 4.2253175 -1.4506544 151.41
10.422081 5.6799436 -1.6681287 151.41
12.503808 6.814467 -1.3285404 151.41
14.065645 7.6656542 -1.1201495 151.41
2.8701057 1.5641828 -1.4553037 151.41
11.693674 6.372951 -0.62105024 151.41
2.8584812 1.5578474 -1.3597722 151.41
14.528086 7.9176803 -0.38413864 151.41
4.5410905 2.4748547 -2.019479 151.41
4.7873034 2.6090388 -1.9844009 151.41
11.550487 6.2949147 0.30540764 151.41
5.0793428 2.7681975 -1.9546343 151.41
64.006462 34.882965 3.399379 151.41
5.4617543 2.9766088 -1.9409518 151.41
63.951473 34.852997 5.0929203 151.41
5.861095 3.1942458 -1.9140258 151.41
6.3979969 3.4868526 -1.9074899 151.41
6.9070497 3.764282 -1.8638411 151.41
6.8967957 3.7586937 -1.6695309 151.41
7.0031714 3.8166676 -1.5026944 151.41
7.808157 4.2271395 -1.4587604 151.57001
10.44661 5.6555324 -1.6695205 151.57001
11.697206 6.3325734 -1.5554901 151.57001
12.49477 6.7643542 -1.325568 151.57001
14.048397 7.6054492 -1.1170802 151.57001
2.8857098 1.5622507 -1.4609981 151.57001
22.034908 11.929145 -1.1684986 151.57001
4.284493 2.3195169 -2.0350332 151.57001
34.449104 18.649878 -0.90949178 151.57001
4.5414305 2.4586163 -2.0165691 151.57001
11.608072 6.2843184 0 151.57001
4.802834 2.6001337 -1.9878211 151.57001
11.524062 6.2388372 0.30424708 151.57001
5.0937181 2.7576108 -1.9571953 151.57001
5.458293 2.9549825 -1.9367816 151.57001
5.8902802 3.1888494 -1.9206411 151.57001
6.414515 3.472657 -1.909516 151.57001
6.8850174 3.7273753 -1.8550798 151.57001
6.8762984 3.7226551 -1.6620461 151.57001
7.0017037 3.7905464 -1.5001023 151.57001
7.9861941 4.2929335 -1.2742689 151.74001
10.82885 5.8209867 -1.4377134 151.74001
12.425331 6.6791663 -1.316093 151.74001
14.004123 7.5278368 -1.1117787 151.74001
2.8436623 1.5285945 -1.4374073 151.74001
22.054369 11.855201 -1.1676601 151.74001
3.0023241 1.6138822 -1.4237524 151.74001
11.667563 6.2718325 -0.30754304 151.74001
4.5437827 2.4424846 -2.0143867 151.74001
4.8154941 2.5885415 -1.9898732 151.74001
11.539 6.202724 0.30415425 151.74001
5.1085534 2.746074 -1.9597563 151.74001
5.4670362 2.9387743 -1.9367816 151.74001
5.9098759 3.1768203 -1.9239488 151.74001
6.3992276 3.4398685 -1.9019184 151.74001
6.9063315 3.7124593 -1.8578465 151.74001
6.8907595 3.7040887 -1.6628777 151.74001
6.9125128 3.7157819 -1.4786246 151.74001
7.8251266 4.1747189 -1.4571391 151.92
8.0310946 4.2846031 -1.2792791 151.92
12.426927 6.6297874 -1.3140494 151.92
14.06467 7.5035262 -1.1147084 151.92
2.8323302 1.5110532 -1.4292725 151.92
22.121469 11.801843 -1.1692441 151.92
34.520046 18.416506 -0.90837765 151.92
4.5465021 2.4255669 -2.0122042 151.92
11.586248 6.181284 0 151.92
4.8153114 2.5689771 -1.9864529 151.92
11.535496 6.1542077 0.30355078 151.92
5.1121402 2.7273357 -1.9578356 151.92
5.4644504 2.9152939 -1.9326113 151.92
5.919827 3.1582382 -1.9239488 151.92
6.4100027 3.4197476 -1.9019184 151.92
6.9231114 3.6934924 -1.8592299 151.92
6.9299788 3.697156 -1.6695309 151.92
6.8877363 3.6746197 -1.4708482 151.92
7.8489614 4.1593194 -1.4594089 152.08
7.9870281 4.2324839 -1.270372 152.08
11.698697 6.1993704 -1.5482888 152.08
12.434834 6.5894647 -1.3129346 152.08
14.074991 7.4586158 -1.1138713 152.08
2.9430907 1.5596019 -1.4829618 152.08
11.721499 6.2114539 -0.61862791 152.08
2.99228 1.5856683 -1.4145023 152.08
11.656874 6.1772075 -0.30628964 152.08
4.5516119 2.411989 -2.0114768 152.08
4.825788 2.5572803 -1.9878211 152.08
11.568538 6.1303964 0.30396858 152.08
5.1230845 2.7148237 -1.959116 152.08
5.4708834 2.8991292 -1.9320155 152.08
5.9422135 3.1488962 -1.9283589 152.08
6.4280753 3.406364 -1.9044509 152.08
6.9282398 3.6714113 -1.8578465 152.08
6.9437332 3.6796215 -1.6703625 152.08
7.0681624 3.745559 -1.507138 152.08
7.2233524 3.7971706 -1.3407366 152.27
8.0571175 4.2354646 -1.2792791 152.27
11.703365 6.1522231 -1.5461981 152.27
12.523599 6.5834031 -1.3199944 152.27
14.104945 7.4146852 -1.1142899 152.27
2.8884079 1.5183779 -1.4528633 152.27
11.731422 6.1669722 -0.61806893 152.27
11.663136 6.1310754 -0.30591828 152.27
4.5678306 2.4012163 -2.0151141 152.27
4.8292508 2.5386398 -1.9857689 152.27
11.549867 6.0715322 0.30294728 152.27
5.1337361 2.6987016 -1.9597563 152.27
5.4804668 2.880971 -1.9320155 152.27
5.9339037 3.1193337 -1.922295 152.27
6.4581742 3.394932 -1.9100224 152.27
6.9386539 3.6475105 -1.8573854 152.27
7.0078454 3.6838832 -1.6828372 152.27
7.0057378 3.682775 -1.491215 152.27
7.214684 3.766937 -1.33717 152.42999
10.542608 5.5045156 -1.671469 152.42999
11.702891 6.1103234 -1.5438751 152.42999
12.503098 6.5281286 -1.3159071 152.42999
14.08315 7.353106 -1.1109416 152.42999
2.8553855 1.4908564 -1.4341534 152.42999
11.713179 6.1156945 -0.61620557 152.42999
11.666032 6.0910783 -0.30554691 152.42999
4.5646095 2.3832777 -2.0107493 152.42999
4.8313236 2.5225346 -1.9837168 152.42999
11.549052 6.0300012 0.30248308 152.42999
5.1328545 2.6799703 -1.956555 152.42999
5.4664893 2.8541682 -1.9242709 152.42999
5.9442959 3.1036408 -1.9228462 152.42999
6.4676294 3.3768842 -1.9100224 152.42999
6.9436374 3.6254179 -1.8560021 152.42999
6.9799542 3.6443796 -1.6736891 152.42999
6.916687 3.6113465 -1.4701077 152.42999
8.071559 4.1821113 -1.2776091 152.61
11.707919 6.0662169 -1.5420166 152.61
12.489952 6.4714108 -1.3123772 152.61
14.074294 7.292305 -1.1084304 152.61
11.727013 6.0761094 -0.61592609 152.61
4.3242488 2.2405202 -2.0342624 152.61
11.678009 6.0507193 -0.30536121 152.61
4.5770364 2.3714969 -2.0129316 152.61
4.8425617 2.5090735 -1.9850849 152.61
11.550186 5.9844904 0.30201885 152.61
5.1362014 2.6612167 -1.9546343 152.61
5.4788194 2.8387372 -1.9254624 152.61
5.9659657 3.0911419 -1.9267051 152.61
6.4713349 3.3529885 -1.9079964 152.61
6.8841467 3.5668786 -1.8370962 152.61
7.0191607 3.6368332 -1.6803423 152.61
6.9855862 3.6194372 -1.4823277 152.61
8.0055246 4.1195812 -1.4791876 152.77
8.0972939 4.1668048 -1.2798358 152.77
11.721281 6.0316806 -1.5415521 152.77
12.507975 6.4365067 -1.3123772 152.77
3.0201445 1.554143 -1.5122468 152.77
11.722617 6.0323682 -0.61480808 152.77
2.9734163 1.530097 -1.3967727 152.77
11.684193 6.0125952 -0.30508268 152.77
4.5753584 2.354444 -2.0092943 152.77
11.662444 6.0014038 0 152.77
4.8528919 2.4972606 -1.9864529 152.77
5.1452975 2.6477304 -1.9552746 152.77
5.4748421 2.8173113 -1.9212921 152.77
5.9711556 3.0727105 -1.9256026 152.77
6.4789524 3.3340187 -1.9074899 152.77
6.9252286 3.563669 -1.8453963 152.77
7.0797348 3.6431766 -1.6924012 152.77
7.0131426 3.6089089 -1.4860307 152.77
7.9509277 4.0616937 -1.4668664 152.94
8.1484241 4.1625834 -1.2859595 152.94
11.716128 5.9851284 -1.5385321 152.94
12.489777 6.3803425 -1.3084759 152.94
11.720894 5.9875622 -0.61378324 152.94
11.655685 5.9542513 -0.30387571 152.94
4.5856423 2.3425534 -2.0107493 152.94
43.046471 21.990084 0 152.94
4.8552589 2.4802859 -1.9844009 152.94
11.532825 5.891489 0.30067262 152.94
5.1497564 2.6307285 -1.9539942 152.94
5.4882774 2.8036604 -1.9230794 152.94
5.9922309 3.0611024 -1.9294615 152.94
6.4888163 3.3147807 -1.9074899 152.94
6.9565687 3.5537298 -1.8509297 152.94
7.1166449 3.635504 -1.6986386 152.94
7.1410871 3.6479902 -1.5108411 152.94
7.9759707 4.0429411 -1.4691361 153.12
8.1349621 4.1235323 -1.2817843 153.12
11.724243 5.942903 -1.5371383 153.12
12.369439 6.2699466 -1.2937989 153.12
13.982044 7.0873604 -1.0961533 153.12
3.0328412 1.5373173 -1.5138738 153.12
22.424364 11.366689 -1.1724117 153.12
11.690385 5.9257407 -0.30429351 153.12
4.5896554 2.3264511 -2.0092943 153.12
43.085014 21.839369 0 153.12
4.8596745 2.463321 -1.9830328 153.12
5.1596856 2.6153936 -1.9546343 153.12
5.5072761 2.7915838 -1.9266539 153.12
5.9966736 3.0396545 -1.9278077 153.12
6.5078268 3.298753 -1.9100224 153.12
6.9676986 3.5318577 -1.8509297 153.12
7.2173758 3.6584165 -1.5245423 153.12
8.0672646 4.0591755 -1.483727 153.28999
8.1949301 4.1234126 -1.2892996 153.28999
11.732951 5.903626 -1.5359769 153.28999
12.468038 6.2734962 -1.3021592 153.28999
3.0455499 1.532418 -1.5179411 153.28999
22.573992 11.358472 -1.1784675 153.28999
3.0382857 1.5287629 -1.420669 153.28999
11.656118 5.8649659 -0.30294728 153.28999
3.0787818 1.5491393 -1.3458344 153.28999
29.162441 14.673558 0 153.28999
4.8787136 2.4548044 -1.9878211 153.28999
5.1708083 2.6017764 -1.9559149 153.28999
5.5189457 2.7769475 -1.9278454 153.28999
5.9970789 3.0175281 -1.9250513 153.28999
6.5348692 3.2881258 -1.9150875 153.28999
7.0094395 3.5269136 -1.8592299 153.28999
7.0530906 3.5488775 -1.6782632 153.28999
7.1597266 3.6025333 -1.5101005 153.28999
8.0086498 3.9999487 -1.4707574 153.46001
8.1646042 4.0778408 -1.2826194 153.46001
11.730867 5.859024 -1.5334215 153.46001
12.417117 6.2017736 -1.2949135 153.46001
3.0304685 1.5135784 -1.5081794 153.46001
2.9850228 1.4908804 -1.3936894 153.46001
29.18725 14.577677 -0.75746107 153.46001
29.000088 14.484198 0 153.46001
4.8960638 2.4453566 -1.9919254 153.46001
11.580453 5.7838988 0.30053335 153.46001
5.1683345 2.5813432 -1.9520735 153.46001
29.143761 14.555956 1.5191787 153.46001
5.5271606 2.7605603 -1.9278454 153.46001
29.186468 14.577287 2.2813158 153.46001
6.0283651 3.0108886 -1.9322178 153.46001
6.5376725 3.265264 -1.9130615 153.46001
7.011168 3.5017529 -1.8569243 153.46001
7.9809647 3.9861214 -1.6808107 153.46001
7.9274545 3.9283266 -1.4535725 153.64
8.1383333 4.0328245 -1.2764957 153.64
11.731418 5.8133216 -1.5310985 153.64
12.504343 6.1963325 -1.3019733 153.64
2.9713612 1.4724118 -1.476454 153.64
12.468036 6.1783414 -0.64890712 153.64
3.0293779 1.5011612 -1.4121897 153.64
11.65948 5.7776737 -0.30211172 153.64
3.0714946 1.5220313 -1.3385596 153.64
28.993479 14.367268 0 153.64
4.8818302 2.4191151 -1.9830328 153.64
5.1713252 2.5625699 -1.9501526 153.64
29.377306 14.557467 1.5289612 153.64
5.5375166 2.7440302 -1.928441 153.64
6.0274587 2.9868133 -1.9289103 153.64
6.5322957 3.2369776 -1.9085029 153.64
7.0291095 3.4831657 -1.8587688 153.64
7.6688652 3.8001869 -1.8192273 153.64
8.042758 3.9854634 -1.6911793 153.64
8.0169954 3.9431131 -1.4678391 153.81
8.235569 4.0506172 -1.2898563 153.81
11.741484 5.774981 -1.5301692 153.81
12.58164 6.1882071 -1.3081043 153.81
2.9773562 1.4643955 -1.4772675 153.81
3.0354748 1.4929807 -1.4129605 153.81
11.710661 5.7598209 -0.30299371 153.81
3.0693099 1.5096225 -1.3356496 153.81
29.175964 14.350029 0 153.81
4.8771815 2.3988135 -1.9782445 153.81
11.620952 5.7156978 0.30067262 153.81
5.1738052 2.5447061 -1.9482319 153.81
29.368382 14.444669 1.5262594 153.81
5.5422072 2.7259028 -1.9272496 153.81
29.344793 14.433067 2.2867568 153.81
6.0086918 2.9553404 -1.9200898 153.81
6.4811053 3.1876943 -1.8907753 153.81
7.039413 3.4622948 -1.8587688 153.81
7.6713295 3.7730992 -1.8171482 153.81
8.2220936 4.0439892 -1.7263582 153.81
8.1598997 3.9833753 -1.491833 153.98
8.2457714 4.0252948 -1.289578 153.98
11.740716 5.7314038 -1.5278463 153.98
12.530155 6.1167803 -1.3008586 153.98
12.206089 5.9585829 -0.94980413 153.98
2.9931815 1.4611657 -1.4829618 153.98
12.45062 6.0779538 -0.64611214 153.98
3.0432081 1.4855869 -1.4145023 153.98
28.455885 13.891161 -0.73517871 153.98
3.0670791 1.4972399 -1.3327397 153.98
29.238182 14.27305 0 153.98
4.8859663 2.3851566 -1.9789286 153.98
5.1864405 2.5318377 -1.9501526 153.98
29.373407 14.339063 1.5243028 153.98
5.5245357 2.6968837 -1.9183134 153.98
5.9863358 2.9223182 -1.9101669 153.98
6.4992285 3.1726944 -1.8933078 153.98
7.051404 3.4422469 -1.8592299 153.98
7.6754584 3.7468884 -1.8154849 153.98
8.2676134 4.0359578 -1.7333939 153.98
8.2089796 3.9772174 -1.4986421 154.14999
9.9206209 4.8065004 -1.5492749 154.14999
11.727279 5.681819 -1.5238972 154.14999
12.56617 6.0882583 -1.3027165 154.14999
2.9761281 1.4419219 -1.4723866 154.14999
12.261837 5.9408102 -0.63539797 154.14999
3.0309942 1.4685044 -1.4067937 154.14999
11.665461 5.6518683 -0.30095115 154.14999
4.6106148 2.2338243 -2.0005646 154.14999
29.122013 14.109497 0 154.14999
4.9014783 2.3747463 -1.9823488 154.14999
47.379799 22.95532 1.2223269 154.14999
5.202456 2.5205686 -1.9533539 154.14999
29.536283 14.310209 1.5305451 154.14999
5.5462584 2.6871397 -1.9230794 154.14999
29.469423 14.277816 2.2898259 154.14999
6.0088215 2.9112496 -1.9145771 154.14999
6.5190606 3.1584585 -1.8963468 154.14999
7.0580835 3.4196129 -1.8583076 154.14999
7.6706972 3.7164216 -1.8117424 154.14999
8.2919331 4.0174079 -1.735986 154.14999
8.1791496 3.9346008 -1.4911845 154.31
11.735939 5.6456037 -1.5229679 154.31
12.557999 6.0410576 -1.3001155 154.31
12.578214 6.0507817 -0.97603256 154.31
2.7809181 1.3377677 -1.3739563 154.31
28.589476 13.75304 -0.73657137 154.31
4.6168351 2.2209404 -2.0005646 154.31
29.296474 14.093143 0 154.31
4.892848 2.3537171 -1.9761924 154.31
11.598314 5.5793986 0.29881576 154.31
5.2043519 2.5035667 -1.9514332 154.31
47.374378 22.789566 2.4515927 154.31
5.5640635 2.6766071 -1.9266539 154.31
47.349892 22.777786 3.6742129 154.31
6.0394502 2.905293 -1.9217436 154.31
6.5295987 3.1410804 -1.8968533 154.31
7.0763741 3.4041078 -1.8606132 154.31
7.6581273 3.6839619 -1.8063368 154.31
8.3261442 4.0053134 -1.7408 154.31
7.9926476 3.8122973 -1.4548695 154.5
10.806059 5.1542258 -1.6826028 154.5
11.733081 5.5963926 -1.5201803 154.5
12.274071 5.8544312 -0.95092022 154.5
2.8001809 1.3356178 -1.3812777 154.5
12.602641 6.0111513 -0.65114313 154.5
2.8183696 1.3442934 -1.3042712 154.5
11.678112 5.5701737 -0.30039409 154.5
4.6292191 2.2080243 -2.0027471 154.5
29.384567 14.015719 0 154.5
4.9091082 2.3415244 -1.9796126 154.5
11.613143 5.539185 0.29872292 154.5
5.2109151 2.4854791 -1.9507929 154.5
47.557884 22.683947 2.4571826 154.5
5.5694623 2.6564972 -1.9254624 154.5
29.768583 14.198886 2.3062885 154.5
6.0455809 2.883594 -1.9206411 154.5
6.5469646 3.1227419 -1.8988794 154.5
7.0595188 3.3672178 -1.8532354 154.5
7.6879592 3.6669683 -1.810495 154.5
8.3376074 3.9768345 -1.7404296 154.5
8.0532045 3.8136132 -1.4639482 154.66
10.754181 5.0926666 -1.672304 154.66
11.736095 5.5576544 -1.5185542 154.66
12.546421 5.9413857 -0.97073108 154.66
2.8022485 1.327011 -1.3804642 154.66
2.8237805 1.3372077 -1.3050421 154.66
4.6370506 2.1958857 -2.0034745 154.66
29.170532 13.81377 0 154.66
4.9156275 2.3278065 -1.9796126 154.66
11.608688 5.4973202 0.29821229 154.66
5.2161231 2.4701068 -1.9501526 154.66
5.538898 2.6229575 -1.9123559 154.66
6.0397096 2.8601179 -1.9162309 154.66
6.5661511 3.1094155 -1.9019184 154.66
7.0812063 3.3533213 -1.8564632 154.66
7.6468954 3.6212044 -1.7984362 154.66
8.3309164 3.9451244 -1.7367266 154.66
8.0490694 3.7807431 -1.4610301 154.84
10.73786 5.0436997 -1.6672938 154.84
11.73372 5.511467 -1.515999 154.84
12.342979 5.7976432 -1.2722479 154.84
12.635452 5.9350214 -0.97617209 154.84
12.603732 5.9201221 -0.64937299 154.84
3.0417774 1.4287589 -1.4037104 154.84
11.71639 5.5033269 -0.30053335 154.84
4.6236916 2.1718025 -1.9947448 154.84
11.708685 5.4997082 0 154.84
4.895699 2.2995679 -1.968668 154.84
11.622282 5.4591231 0.29811946 154.84
5.2272873 2.4553189 -1.9514332 154.84
45.659145 21.446642 2.352463 154.84
5.5903125 2.6258359 -1.9272496 154.84
6.0643258 2.8484857 -1.9211924 154.84
6.5688825 3.0854819 -1.8998923 154.84
7.0881834 3.3294036 -1.855541 154.84
7.7184372 3.6254413 -1.8125741 154.84
8.3343744 3.9147546 -1.7348751 154.84
8.0709839 3.761847 -1.4629755 155.00999
10.79586 5.0318985 -1.673974 155.00999
11.697806 5.4522915 -1.5092622 155.00999
12.719914 5.9286909 -0.98133409 155.00999
2.8086464 1.3090966 -1.3796507 155.00999
12.791457 5.9620366 -0.65813065 155.00999
3.0443304 1.4189478 -1.4029396 155.00999
28.639378 13.348676 -0.73360038 155.00999
4.6402464 2.1627965 -1.9991096 155.00999
48.795956 22.743561 0 155.00999
4.9042039 2.285826 -1.969352 155.00999
11.64749 5.4288387 0.29835156 155.00999
5.2173758 2.4317937 -1.9450308 155.00999
45.505283 21.209793 2.3412831 155.00999
5.6101923 2.6148837 -1.9314198 155.00999
45.687893 21.294909 3.5247946 155.00999
6.0866914 2.8369775 -1.9256026 155.00999
45.814411 21.353878 4.7157521 155.00999
6.5832691 3.0684302 -1.9014119 155.00999
7.089211 3.3042471 -1.8532354 155.00999
7.7114286 3.5942597 -1.8084159 155.00999
8.3602047 3.8966513 -1.7378376 155.00999
8.5198622 3.9385338 -1.5420903 155.19
10.797233 4.9913092 -1.6717473 155.19
11.713075 5.4146814 -1.5090299 155.19
12.42516 5.7438622 -1.2770783 155.19
12.712198 5.8765531 -0.65309966 155.19
28.679358 13.257798 -0.73355395 155.19
4.640254 2.1450813 -1.9961997 155.19
11.700308 5.4087796 0 155.19
4.9198904 2.2743506 -1.9727722 155.19
11.649968 5.3855085 0.29798019 155.19
5.2232699 2.4145958 -1.9443905 155.19
45.57169 21.06673 2.3412831 155.19
5.6114473 2.5940413 -1.9290369 155.19
45.642288 21.099365 3.5161448 155.19
6.0973186 2.8186483 -1.9261539 155.19
45.742088 21.145502 4.7014465 155.19
6.6034141 3.0526042 -1.9044509 155.19
7.1030898 3.2835927 -1.8541576 155.19
7.712028 3.5650907 -1.805921 155.19
8.367053 3.8678937 -1.7367266 155.19
8.5157957 3.9096279 -1.5394964 155.34
10.799463 4.9580669 -1.6700772 155.34
11.712768 5.3773675 -1.5071715 155.34
12.472731 5.7262688 -1.2804224 155.34
4.3807726 2.0112259 -2.0134494 155.34
11.740346 5.3900285 -0.29992989 155.34
4.6407747 2.1305938 -1.9940172 155.34
29.666857 13.620145 0 155.34
4.9241199 2.2606785 -1.9720881 155.34
45.634892 20.951118 1.1658318 155.34
5.2450709 2.4080281 -1.9501526 155.34
45.599453 20.934847 2.3398855 155.34
5.6060739 2.5737655 -1.9248666 155.34
45.684677 20.973974 3.5151682 155.34
6.0784693 2.7906439 -1.9178847 155.34
45.815388 21.033985 4.7033043 155.34
6.6254497 3.0417643 -1.9085029 155.34
7.1098933 3.2641737 -1.8536965 155.34
7.7231126 3.5457046 -1.8063368 155.34
8.3753643 3.8451555 -1.7363564 155.34
8.5309505 3.8859801 -1.5401449 155.50999
10.833953 4.9350333 -1.673139 155.50999
11.717825 5.3376508 -1.5057776 155.50999
12.486042 5.6875854 -1.2800509 155.50999
12.830271 5.8443871 -0.65747851 155.50999
4.3884001 1.9989842 -2.0142202 155.50999
4.6470757 2.1168151 -1.9940172 155.50999
48.71228 22.189198 0 155.50999
4.870945 2.218791 -1.9481467 155.50999
11.643473 5.303782 0.29705176 155.50999
5.2521925 2.3924551 -1.9501526 155.50999
45.701363 20.817678 2.3419352 155.50999
5.6171603 2.5587037 -1.9260581 155.50999
45.881062 20.899534 3.5254922 155.50999
6.1024685 2.7797689 -1.9228462 155.50999
45.87941 20.898781 4.7034903 155.50999
6.6168385 3.0140724 -1.9034379 155.50999
7.1213179 3.2438705 -1.8541576 155.50999
7.715796 3.5146646 -1.8021785 155.50999
8.3867369 3.8202884 -1.7363564 155.50999
8.5287275 3.8526604 -1.5375509 155.69
10.858428 4.9050498 -1.6745307 155.69
11.70738 5.2885451 -1.5022931 155.69
3.0687523 1.3862396 -1.4992312 155.69
12.910472 5.8320146 -0.66064614 155.69
4.4131584 1.9935448 -2.0226996 155.69
4.6604943 2.1052732 -1.9969271 155.69
11.770757 5.317174 0 155.69
4.8830299 2.2057986 -1.9501989 155.69
45.834911 20.704887 1.1676886 155.69
5.251049 2.3720429 -1.9469515 155.69
5.6321306 2.544188 -1.928441 155.69
6.1146755 2.7621667 -1.9239488 155.69
6.6333275 2.9964561 -1.9054639 155.69
7.1297002 3.2206812 -1.8536965 155.69
7.7250166 3.4896021 -1.8017627 155.69
8.3933229 3.7914946 -1.7352455 155.69
9.4899664 4.2510314 -1.708426 155.87
10.911741 4.8879156 -1.6803761 155.87
11.731189 5.2549877 -1.5032223 155.87
12.683653 5.681644 -0.97184718 155.87
3.0847642 1.3818206 -1.5049256 155.87
4.4193997 1.9796708 -2.0226996 155.87
13.048779 5.845202 -0.33196077 155.87
4.6738858 2.0936677 -1.999837 155.87
48.644485 21.790304 0 155.87
4.8916507 2.1912155 -1.9508829 155.87
5.2653918 2.358633 -1.9495125 155.87
5.6435804 2.5280428 -1.9296325 155.87
6.1250772 2.7437294 -1.9245 155.87
6.6215196 2.9661105 -1.8993859 155.87
7.1273503 3.1926975 -1.8504686 155.87
7.762722 3.4773123 -1.8080001 155.87
8.3854628 3.7562692 -1.7311721 155.87
9.480896 4.2132382 -1.7045351 156.03999
10.909906 4.84828 -1.6778709 156.03999
11.728576 5.2120905 -1.5008993 156.03999
12.521741 5.5645666 -1.2783788 156.03999
12.058686 5.358789 -0.92273861 156.03999
3.120574 1.3867594 -1.5203816 156.03999
4.6766725 2.0782778 -1.9983821 156.03999
48.538952 21.570343 0 156.03999
4.9548059 2.2018783 -1.9734563 156.03999
11.644529 5.1747403 0.29584479 156.03999
5.2775612 2.3453083 -1.9514332 156.03999
5.6528015 2.5120621 -1.9302284 156.03999
6.1314344 2.7247629 -1.9239488 156.03999
6.6320591 2.9472368 -1.8998923 156.03999
7.0638766 3.1391335 -1.8315628 156.03999
7.7694297 3.4526756 -1.8071684 156.03999
8.3732224 3.7209964 -1.7263582 156.03999
9.4995031 4.1858196 -1.7055079 156.22
10.908772 4.8067942 -1.6753658 156.22
11.728532 5.1680093 -1.4988086 156.22
12.444402 5.4834471 -1.268718 156.22
3.1411674 1.3841103 -1.4337734 156.22
4.6678352 2.0568144 -1.9918349 156.22
48.844402 21.522585 0 156.22
4.9530997 2.1825123 -1.970036 156.22
49.36552 21.752207 1.2524545 156.22
5.2849035 2.3287168 -1.9514332 156.22
5.6589184 2.493521 -1.9296325 156.22
6.1487608 2.7093632 -1.9267051 156.22
6.6572204 2.9334085 -1.9044509 156.22
7.1271305 3.1404679 -1.8453963 156.22
7.7838187 3.4298279 -1.8080001 156.22
8.3417053 3.6756527 -1.7174709 156.22
9.4702892 4.1394358 -1.6980503 156.39
10.922987 4.774406 -1.6753658 156.39
11.729253 5.1268225 -1.4969501 156.39
3.118942 1.3632805 -1.5155008 156.39
12.792207 5.5914364 -0.65104997 156.39
3.1232772 1.3651755 -1.4237524 156.39
4.667089 2.0399711 -1.988925 156.39
48.898884 21.373562 0 156.39
4.9664421 2.1708174 -1.9727722 156.39
11.705235 5.1163249 0.29658753 156.39
5.296998 2.3153026 -1.9533539 156.39
5.6627927 2.4751904 -1.928441 156.39
6.1409183 2.6841776 -1.9217436 156.39
6.6268921 2.8965955 -1.8933078 156.39
7.1613822 3.1302195 -1.8518519 156.39
7.7921681 3.4059343 -1.8075843 156.39
8.3381672 3.6445889 -1.7145084 156.39
9.415534 4.0822721 -1.6860534 156.56
10.895311 4.723856 -1.6689638 156.56
11.7353 5.088048 -1.4957887 156.56
12.513262 5.4253469 -1.2724338 156.56
3.1011813 1.3445722 -1.5049256 156.56
12.660271 5.4890852 -0.64350343 156.56
3.1459391 1.3639778 -1.4322317 156.56
12.877909 5.583446 -0.32587954 156.56
4.6748304 2.0268557 -1.9896524 156.56
11.791416 5.1123781 0 156.56
4.9573421 2.1493437 -1.9666158 156.56
5.3003674 2.2980685 -1.9520735 156.56
5.6683602 2.4576182 -1.9278454 156.56
6.150619 2.6667101 -1.922295 156.56
6.6691847 2.8915434 -1.9029315 156.56
7.163496 3.1058609 -1.8500075 156.56
7.7986498 3.3812432 -1.8067526 156.56
8.3363218 3.6143603 -1.7119163 156.56
9.4004097 4.0426226 -1.6811898 156.73
10.845599 4.6641226 -1.6592218 156.73
11.755819 5.0555606 -1.4964856 156.73
12.395761 5.3307657 -1.2588716 156.73
3.126977 1.3447485 -1.5155008 156.73
12.828293 5.5167751 -0.32420838 156.73
4.6722665 2.0092964 -1.986015 156.73
4.9688773 2.136853 -1.968668 156.73
5.3019409 2.2800863 -1.9501526 156.73
5.6475649 2.428721 -1.9183134 156.73
6.167335 2.6522467 -1.9250513 156.73
6.6812897 2.8732717 -1.9039444 156.73
7.1673164 3.0822864 -1.8486241 156.73
7.7978649 3.353452 -1.8042576 156.73
8.3560362 3.5934923 -1.7137678 156.73
9.4770088 4.0442419 -1.6928624 156.89
10.944198 4.6703534 -1.672304 156.89
11.740659 5.0102372 -1.4927688 156.89
12.416094 5.2984743 -1.2594289 156.89
12.680023 5.4111042 -0.96403444 156.89
4.6795726 1.9969723 -1.9867425 156.89
49.096416 20.951525 0 156.89
4.9713678 2.1214938 -1.9672998 156.89
5.2943454 2.2593219 -1.9450308 156.89
5.663105 2.4166873 -1.9212921 156.89
6.1605716 2.6289773 -1.9206411 156.89
6.6892872 2.8546028 -1.9039444 156.89
7.1794758 3.063787 -1.8495464 156.89
7.8018012 3.3293598 -1.8030102 156.89
8.3172312 3.5493155 -1.7037696 156.89
9.4853315 4.0145669 -1.6922139 157.06
10.799327 4.5707016 -1.6480879 157.06
10.670662 4.5162454 -1.3550141 157.06
12.506948 5.2934341 -1.267046 157.06
12.646415 5.3524618 -0.9602676 157.06
13.105092 5.5465922 -0.66362751 157.06
4.4544616 1.8853041 -2.0203872 157.06
13.126847 5.5558 -0.3309395 157.06
4.6940556 1.9867096 -1.9903799 157.06
49.158363 20.805761 0 157.06
4.9724483 2.1045365 -1.9652478 157.06
5.3097506 2.2472961 -1.9482319 157.06
5.6737671 2.4013622 -1.9224836 157.06
6.173656 2.6129351 -1.922295 157.06
6.6763463 2.8256934 -1.8978664 157.06
7.167028 3.0333693 -1.844013 157.06
7.8098435 3.3054342 -1.8025943 157.06
8.2408466 3.4878516 -1.685995 157.06
9.4906168 3.981694 -1.690917 157.24001
10.287653 4.3160825 -1.5679241 157.24001
12.42252 5.2117443 -1.2568278 157.24001
11.925418 5.00319 -0.90432292 157.24001
4.2289023 1.7741939 -2.0418179 157.24001
13.10403 5.4976649 -0.66269583 157.24001
4.4467483 1.8655889 -2.0142202 157.24001
12.87689 5.4023709 -0.32420838 157.24001
4.6951199 1.9697908 -1.9881974 157.24001
4.9825015 2.090359 -1.9666158 157.24001
11.720846 4.9173641 0.29510203 157.24001
5.3115425 2.2284048 -1.9463112 157.24001
5.6795225 2.3827872 -1.9218879 157.24001
6.1765161 2.5912957 -1.9206411 157.24001
6.670917 2.7987168 -1.8938143 157.24001
7.1729331 3.0093327 -1.8430908 157.24001
7.8183856 3.2801259 -1.8021785 157.24001
8.3568811 3.5060463 -1.7074726 157.24001
9.4957905 3.9488275 -1.68962 157.42
10.970472 4.5620742 -1.6697989 157.42
11.795672 4.9052343 -1.4939302 157.42
12.118897 5.0396476 -1.2245015 157.42
12.946913 5.3839779 -0.980497 157.42
4.2344551 1.7608997 -2.0418179 157.42
12.94968 5.385129 -0.65403134 157.42
4.4508834 1.8509012 -2.0134494 157.42
4.7030053 1.9557463 -1.988925 157.42
11.796647 4.9056396 0 157.42
4.9890442 2.0746956 -1.9666158 157.42
5.3167677 2.2109795 -1.9456711 157.42
5.6852174 2.3641996 -1.9212921 157.42
64.649818 26.884649 4.8960671 157.42
6.181076 2.5704024 -1.9195385 157.42
6.6296549 2.7569442 -1.8796322 157.42
7.1859455 2.9882779 -1.844013 157.42
7.8033628 3.2450311 -1.796357 157.42
8.3497066 3.4722283 -1.7037696 157.42
9.5092888 3.9213879 -1.6899443 157.59
9.6784811 3.9911585 -1.471338 157.59
11.79181 4.8626413 -1.4916073 157.59
12.988652 5.3561883 -0.98245019 157.59
4.2345939 1.7462385 -2.0393775 157.59
23.101673 9.5265398 -1.165331 157.59
4.4512372 1.8355764 -2.011137 157.59
35.190998 14.511868 -0.88377422 157.59
4.724288 1.9481757 -1.9954722 157.59
4.9899654 2.0577343 -1.9645637 157.59
11.682273 4.817471 0.29338443 157.59
5.3303108 2.1980841 -1.9482319 157.59
5.6957374 2.3487766 -1.9224836 157.59
64.664749 26.66609 4.8911843 157.59
6.1815658 2.5491199 -1.9173335 157.59
6.6252851 2.7320983 -1.8760867 157.59
7.1785879 2.9602664 -1.8398629 157.59
7.8039141 3.2181349 -1.7942779 157.59
8.3908615 3.4601767 -1.7100648 157.59
9.5336695 3.8983848 -1.6922139 157.75999
9.6756153 3.9564276 -1.4691112 157.75999
10.80962 4.4201298 -1.3656999 157.75999
12.668375 5.1801882 -1.2768925 157.75999
4.2397566 1.7336664 -2.0393775 157.75999
12.835321 5.2484536 -0.64667112 157.75999
4.4600801 1.8237582 -2.0126786 157.75999
35.183933 14.386958 -0.88252085 157.75999
4.7248745 1.9320346 -1.9932898 157.75999
11.784822 4.8188972 0 157.75999
4.9908299 2.0407858 -1.9625115 157.75999
5.3245325 2.1772392 -1.9437504 157.75999
5.6991467 2.3304214 -1.9212921 157.75999
64.697418 26.455231 4.8876967 157.75999
6.1944404 2.5329506 -1.9189873 157.75999
6.674552 2.7292714 -1.8877363 157.75999
7.1873398 2.9389541 -1.8398629 157.75999
7.8170495 3.1964469 -1.7951095 157.75999
8.3901758 3.4308021 -1.7078429 157.75999
9.5403824 3.8661911 -1.6912413 157.94
11.79552 4.7800741 -1.488355 157.94
12.736262 5.161305 -1.2820945 157.94
12.963808 5.2535167 -0.97812527 157.94
4.248569 1.7217108 -2.0410044 157.94
12.944325 5.2456217 -0.65132946 157.94
4.4657874 1.8097376 -2.0126786 157.94
35.203014 14.265841 -0.88187093 157.94
4.7257409 1.9150823 -1.9911073 157.94
4.9954753 2.0243907 -1.9618275 157.94
5.3331022 2.1612124 -1.9443905 157.94
5.708209 2.3132226 -1.9218879 157.94
64.665565 26.205391 4.8790469 157.94
6.2059312 2.5149217 -1.9200898 157.94
6.7099905 2.7191894 -1.8953339 157.94
7.2145739 2.9236691 -1.8444741 157.94
7.8089223 3.1645257 -1.7909513 157.94
8.4100199 3.4081175 -1.7096945 157.94
9.5383234 3.8343816 -1.6889715 158.10001
11.81988 4.7515616 -1.4897488 158.10001
12.669329 5.0930376 -1.2739199 158.10001
11.901057 4.7841945 -0.89692873 158.10001
4.2550554 1.7105213 -2.0418179 158.10001
23.111408 9.2907267 -1.1616043 158.10001
4.4691114 1.7965714 -2.0119078 158.10001
35.214886 14.156293 -0.88117462 158.10001
4.7448988 1.9074371 -1.9969271 158.10001
4.9906464 2.0062268 -1.9577233 158.10001
11.722836 4.7125497 0.29333803 158.10001
5.3426328 2.1477246 -1.9456711 158.10001
5.7164183 2.2979853 -1.9224836 158.10001
6.2254162 2.5026014 -1.9239488 158.10001
6.7085819 2.6968327 -1.8928013 158.10001
7.2299328 2.9064143 -1.8463186 158.10001
7.8467708 3.1543815 -1.7976044 158.10001
8.3939743 3.374356 -1.7045102 158.10001
9.5521564 3.8051274 -1.6892958 158.28
11.827369 4.7114644 -1.4888196 158.28
12.727816 5.0701604 -1.278193 158.28
4.2553163 1.6951168 -2.0393775 158.28
12.92697 5.1494937 -0.64890712 158.28
4.4781628 1.7838883 -2.0134494 158.28
35.249897 14.041893 -0.88094246 158.28
4.7404833 1.8883846 -1.9925623 158.28
11.803918 4.7021232 0 158.28
4.9969244 1.9905385 -1.9577233 158.28
5.3528743 2.1323321 -1.9469515 158.28
5.7147408 2.2764826 -1.9195049 158.28
6.2368197 2.4844542 -1.9250513 158.28
6.6954522 2.6671517 -1.8867233 158.28
7.2462597 2.8865674 -1.848163 158.28
7.8602767 3.1311626 -1.7984362 158.28
8.3972301 3.3450596 -1.7030289 158.28
9.5432129 3.768795 -1.6857291 158.45
11.82282 4.669055 -1.4864967 158.45
12.842819 5.0718722 -1.2882254 158.45
12.82449 5.0646334 -0.96417397 158.45
4.2688236 1.6858392 -2.0434449 158.45
23.186312 9.1567125 -1.162536 158.45
4.4714203 1.7658484 -2.0080535 158.45
35.252354 13.92182 -0.87996763 158.45
4.7564621 1.8784168 -1.9969271 158.45
50.150852 19.805519 0 158.45
5.0045562 1.9763938 -1.9584073 158.45
11.708631 4.6239595 0.29227033 158.45
5.3538904 2.1143525 -1.9450308 158.45
5.7214704 2.2595167 -1.9195049 158.45
6.2352233 2.4624074 -1.922295 158.45
6.708735 2.6494062 -1.8882428 158.45
7.2312613 2.8557618 -1.8421685 158.45
7.8604345 3.1042342 -1.796357 158.45
8.4034624 3.318686 -1.7022884 158.45
9.5451641 3.7368658 -1.6841079 158.62
10.128576 3.9652677 -1.5286773 158.62
11.847719 4.6383004 -1.4878905 158.62
12.855957 5.0330186 -1.2880396 158.62
11.940271 4.6745338 -0.89664972 158.62
4.2635989 1.6691694 -2.038564 158.62
23.187334 9.0776806 -1.1612316 158.62
4.4783587 1.7532464 -2.0088243 158.62
29.316919 11.477371 -0.73095435 158.62
4.7533407 1.8609 -1.9932898 158.62
11.814852 4.625433 0 158.62
4.999898 1.9574256 -1.9543031 158.62
11.636653 4.5556693 0.29013494 158.62
5.3601403 2.0984581 -1.9450308 158.62
5.7334828 2.2446189 -1.9212921 158.62
6.2460823 2.445298 -1.9233974 158.62
6.729178 2.6344266 -1.8917884 158.62
7.252388 2.8392599 -1.8453963 158.62
7.8623238 3.0780454 -1.7946937 158.62
8.4059515 3.2908719 -1.7008071 158.62
9.5807762 3.7161384 -1.688323 158.8
11.767779 4.5644207 -1.4760431 158.8
12.899554 5.0034075 -1.2908263 158.8
12.823566 4.9739337 -0.96180224 158.8
4.270525 1.6564275 -2.0393775 158.8
12.75897 4.9488783 -0.63819295 158.8
4.4958887 1.7438402 -2.0142202 158.8
35.241665 13.669341 -0.87760013 158.8
4.7661109 1.8486526 -1.9961997 158.8
11.734227 4.5514069 0 158.8
5.0200405 1.9471453 -1.9597754 158.8
11.669549 4.52632 0.29059914 158.8
5.3525743 2.0761268 -1.939909 158.8
5.7511859 2.2307379 -1.9248666 158.8
6.2555261 2.4263587 -1.9239488 158.8
6.7320094 2.6111743 -1.8902688 158.8
7.2630863 2.8171656 -1.8458575 158.8
7.8737788 3.0540376 -1.7951095 158.8
8.4034214 3.2594724 -1.698215 158.8
9.5899181 3.6869869 -1.6879988 158.97
10.172944 3.91114 -1.5317391 158.97
11.753458 4.5187922 -1.4725585 158.97
12.810255 4.9250937 -1.2804224 158.97
11.959291 4.597928 -0.89595217 158.97
4.2788315 1.6450607 -2.0410044 158.97
23.134197 8.8942871 -1.155828 158.97
4.4889851 1.7258571 -2.0088243 158.97
11.806103 4.539032 -0.29366297 158.97
4.7663584 1.8324975 -1.9940172 158.97
11.758881 4.5208769 0 158.97
5.0152702 1.9281955 -1.9556712 158.97
5.3710904 2.0649958 -1.9443905 158.97
5.747087 2.2095532 -1.9212921 158.97
6.2698755 2.410547 -1.9261539 158.97
6.7180562 2.5828567 -1.8841908 158.97
7.2768626 2.7976983 -1.8472408 158.97
7.8864574 3.0320661 -1.7959412 158.97
8.4020481 3.2302928 -1.6959932 158.97
9.5934391 3.6557059 -1.6867019 159.14
11.045088 4.2088761 -1.6611701 159.14
11.774239 4.4867287 -1.4734877 159.14
12.969955 4.9423723 -1.2949135 159.14
11.926272 4.544663 -0.89246434 159.14
4.2802792 1.6310567 -2.0393775 159.14
11.869609 4.5230703 -0.59235483 159.14
4.4923615 1.7118734 -2.0080535 159.14
11.808308 4.499711 -0.29338443 159.14
4.7717743 1.8183475 -1.9940172 159.14
11.798408 4.4959383 0 159.14
5.026238 1.9153141 -1.9577233 159.14
5.3807349 2.0503998 -1.9456711 159.14
5.7607541 2.1952109 -1.9236751 159.14
6.2644243 2.3871412 -1.922295 159.14
6.7546177 2.5739357 -1.8922949 159.14
7.2978616 2.780946 -1.8504686 159.14
7.8881068 3.0058668 -1.7942779 159.14
8.4115953 3.2053492 -1.6959932 159.14
9.6381111 3.6380944 -1.6925381 159.32001
10.932258 4.1265955 -1.6422426 159.32001
11.777125 4.4455075 -1.4720939 159.32001
11.977511 4.5211473 -1.1944045 159.32001
23.189966 8.7535086 -1.1559211 159.32001
4.5046234 1.7003586 -2.011137 159.32001
35.33247 13.336936 -0.87681097 159.32001
4.7652626 1.7987421 -1.988925 159.32001
5.0392632 1.902169 -1.9604595 159.32001
5.3676505 2.0261252 -1.9386284 159.32001
5.7622633 2.1750796 -1.9218879 159.32001
6.2790875 2.3701651 -1.9245 159.32001
6.7644806 2.5533862 -1.8928013 159.32001
7.2956376 2.7538819 -1.8477019 159.32001
7.8920207 2.9789982 -1.7930304 159.32001
8.4087524 3.1740489 -1.6934011 159.32001
9.6389914 3.6077065 -1.690917 159.48
10.821317 4.0502305 -1.6238717 159.48
