# .PCD v0.7 - Point Cloud Data file format
VERSION 0.7
FIELDS x y z intensity
SIZE 4 4 4 4
TYPE F F F F
COUNT 1 1 1 1
WIDTH 1282
HEIGHT 1
VIEWPOINT 0 0 0 1 0 0 0
POINTS 1282
DATA ascii
2.1718693 9.0604181 -1.5307419 103.48
2.3651595 9.8667698 -1.4259676 103.48
2.8774321 12.003825 -1.4435209 103.48
4.6076097 19.221632 -1.8440907 103.48
5.3437252 22.292496 -1.6030037 103.48
1.0664679 4.4489994 -2.036937 103.48
7.6818161 32.046341 -1.5367873 103.48
1.1357077 4.7378483 -2.0350332 103.48
9.6885347 40.417801 -0.96496558 103.48
1.2151064 5.0690765 -2.0354836 103.48
1.3007065 5.4261761 -2.0309155 103.48
15.251274 63.623962 1.5190072 103.48
1.4005637 5.8427515 -2.0301819 103.48
1.5073781 6.2883511 -2.0178034 103.48
15.178226 63.319225 4.5531445 103.48
1.64382 6.8575478 -2.0220757 103.48
15.31522 63.890724 6.1295671 103.48
1.792328 7.4770803 -2.0128424 103.48
1.9774661 8.249424 -2.0100157 103.48
2.0835736 8.6920748 -1.899897 103.48
2.245398 9.3671589 -1.8148608 103.48
2.2783835 9.3818779 -1.5861871 103.65
2.4009678 9.8866539 -1.4298644 103.65
2.4123721 9.9336138 -1.195423 103.65
4.6571021 19.176916 -1.8411181 103.65
5.4639907 22.499502 -1.6190478 103.65
1.0813884 4.4529176 -2.0401909 103.65
7.5925217 31.264322 -1.5003591 103.65
1.1501957 4.7362514 -2.035804 103.65
9.8673964 40.631748 -0.97076827 103.65
1.2301413 5.0654492 -2.0354836 103.65
1.3163571 5.4204669 -2.0302315 103.65
15.468294 63.695007 1.5217925 103.65
1.4174461 5.836729 -2.0295417 103.65
14.067192 57.925583 2.7798195 103.65
1.5278316 6.2912717 -2.0201864 103.65
15.362265 63.2584 4.5520287 103.65
1.6632521 6.8489037 -2.0209732 103.65
1.8154181 7.4754896 -2.0138555 103.65
2.0019338 8.2435198 -2.0100157 103.65
2.0858095 8.5889006 -1.87869 103.65
2.2796745 9.3871946 -1.8200451 103.65
2.2839892 9.2707939 -1.5686781 103.84
2.4871161 10.095293 -1.2158655 103.84
4.7020917 19.085958 -1.8338726 103.84
5.5519347 22.535501 -1.6229541 103.84
1.0961488 4.449307 -2.0401909 103.84
7.6908994 31.217634 -1.4993342 103.84
1.1667783 4.7359948 -2.0373456 103.84
10.082913 40.926903 -0.9786135 103.84
1.2464865 5.0595331 -2.0347559 103.84
10.373162 42.105034 0 103.84
1.3352239 5.4197216 -2.0315998 103.84
15.9511 64.746086 1.54816 103.84
1.4372469 5.8338366 -2.0301819 103.84
14.199466 57.636135 2.7681735 103.84
1.5477724 6.2824631 -2.018995 103.84
1.6859548 6.8433509 -2.0209732 103.84
1.8378837 7.4600353 -2.011323 103.84
2.0269318 8.2273884 -2.00771 103.84
2.096029 8.5078564 -1.8624729 103.84
2.3089104 9.3719501 -1.8185638 103.84
2.254153 9.0341959 -1.5297692 104.01
2.3810503 9.5427752 -1.3822672 104.01
3.0559621 12.247687 -1.1776839 104.01
5.5641952 22.300186 -1.6071892 104.01
1.1106724 4.4513535 -2.0426314 104.01
7.7805877 31.183046 -1.4987751 104.01
1.1799316 4.728931 -2.035804 104.01
10.21253 40.929787 -0.97940266 104.01
1.263297 5.0630426 -2.0376658 104.01
16.269016 65.202972 0 104.01
1.3512987 5.4157357 -2.0315998 104.01
16.100056 64.525818 1.5440285 104.01
1.4545499 5.8295465 -2.0301819 104.01
14.292543 57.28167 2.7531736 104.01
1.5673304 6.281548 -2.0201864 104.01
15.785022 63.263226 4.5594225 104.01
1.7048557 6.8327222 -2.0193193 104.01
15.981731 64.051598 6.1589212 104.01
1.8590732 7.4507947 -2.0103099 104.01
2.0499206 8.2156734 -2.0063267 104.01
2.1151063 8.4769249 -1.8570672 104.01
2.3329008 9.349802 -1.8156015 104.01
2.2940013 9.0791302 -1.5385237 104.18
2.4239087 9.5932741 -1.3906176 104.18
2.9825053 11.80407 -1.4237753 104.18
4.8250232 19.096333 -1.8375883 104.18
5.6293588 22.279709 -1.6069101 104.18
1.121637 4.4391813 -2.038564 104.18
1.1935053 4.7236199 -2.0350332 104.18
10.40103 41.164886 -0.98576242 104.18
1.2760319 5.050241 -2.0340285 104.18
1.3664407 5.4080582 -2.0302315 104.18
1.4732325 5.8307161 -2.0321026 104.18
14.531935 57.514057 2.7664034 104.18
1.5840904 6.2694659 -2.0178034 104.18
15.950665 63.129066 4.5531445 104.18
1.7255923 6.8294978 -2.0198705 104.18
16.263416 64.366867 6.1938486 104.18
1.8825938 7.4508739 -2.0118296 104.18
2.0652297 8.1737051 -1.9975654 104.18
2.1392899 8.4668179 -1.8562356 104.18
2.3384845 9.2551842 -1.7985674 104.18
2.3222787 9.0841608 -1.5404692 104.34
2.4359729 9.528903 -1.3822672 104.34
3.0700686 12.009323 -1.4495608 104.34
4.881784 19.096291 -1.8388888 104.34
6.0542555 23.682699 -1.7093127 104.34
1.133124 4.4324913 -2.036937 104.34
7.3865709 28.894377 -1.3907948 104.34
1.2057773 4.7166924 -2.0334914 104.34
10.508514 41.106621 -0.98506612 104.34
1.2910527 5.0502677 -2.0354836 104.34
1.3815374 5.4042215 -2.0302315 104.34
1.4881014 5.8210721 -2.0301819 104.34
14.64449 57.285503 2.7573662 104.34
1.6015918 6.265018 -2.0178034 104.34
14.763548 57.751225 4.1682281 104.34
1.7456094 6.8283777 -2.0209732 104.34
1.9033931 7.4455876 -2.0118296 104.34
2.0711768 8.1019144 -1.9814262 104.34
2.1634099 8.4627066 -1.8566514 104.34
2.1754477 8.5097952 -1.6548895 104.34
2.3399203 9.0347891 -1.5333358 104.52
2.4807935 9.578722 -1.3906176 104.52
3.1052916 11.990005 -1.4483992 104.52
3.6461525 14.078351 -1.3567796 104.52
6.1276264 23.6597 -1.7090336 104.52
1.1488758 4.4359846 -2.0401909 104.52
7.3335528 28.315966 -1.3640559 104.52
1.2215147 4.7164545 -2.0350332 104.52
10.664673 41.177929 -0.98757291 104.52
1.3078463 5.0497942 -2.0369384 104.52
1.3999221 5.4053125 -2.0322838 104.52
1.5063814 5.8163681 -2.0301819 104.52
1.6217448 6.2618036 -2.0183992 104.52
14.943905 57.700695 4.1679492 104.52
1.7670527 6.8228598 -2.0209732 104.52
1.9262897 7.4376979 -2.011323 104.52
2.0736868 8.0068216 -1.9597538 104.52
2.1870427 8.4445057 -1.8541565 104.52
2.2080843 8.5257502 -1.6593331 104.52
2.3657157 9.0239887 -1.5326873 104.69
2.5518937 9.7341614 -1.4142771 104.69
3.071336 11.715567 -1.4163417 104.69
4.9932947 19.04685 -1.8370309 104.69
6.1897039 23.610537 -1.7068014 104.69
1.1611059 4.4290218 -2.038564 104.69
8.1774769 31.192867 -1.5038062 104.69
1.2369072 4.7181649 -2.0373456 104.69
10.500324 40.053337 -0.96134466 104.69
1.3223511 5.0440893 -2.036211 104.69
1.4150006 5.3974996 -2.0309155 104.69
1.5236323 5.811873 -2.0301819 104.69
14.821898 56.537918 2.7256894 104.69
1.6393484 6.2532706 -2.0172079 104.69
15.093285 57.573116 4.1619501 104.69
1.7863137 6.8138676 -2.0198705 104.69
16.778137 63.999958 6.1726689 104.69
1.9493306 7.4356928 -2.012336 104.69
2.0717716 7.9027433 -1.9357755 104.69
2.2160571 8.4531183 -1.857483 104.69
2.2941768 8.7511044 -1.7045102 104.69
2.3878715 9.0059013 -1.5307419 104.85
2.5288153 9.5374737 -1.3867208 104.85
3.1142223 11.745347 -1.4209876 104.85
3.7358532 14.089839 -1.3599379 104.85
6.2520337 23.57966 -1.7058249 104.85
1.172533 4.4222298 -2.036937 104.85
8.1201611 30.62534 -1.4775331 104.85
1.249132 4.7111244 -2.035804 104.85
10.613158 40.027721 -0.96143752 104.85
1.3369092 5.0421777 -2.0369384 104.85
11.27827 42.536205 0 104.85
1.4305494 5.3953433 -2.0315998 104.85
15.138522 57.095215 1.3713865 104.85
1.5383993 5.8021011 -2.0282612 104.85
14.900873 56.198917 2.7113419 104.85
1.657783 6.2523594 -2.0183992 104.85
15.152246 57.146973 4.1341872 104.85
1.8043491 6.8051362 -2.0187681 104.85
16.997622 64.106842 6.1875319 104.85
1.9666162 7.417129 -2.0087905 104.85
2.0723851 7.8160391 -1.9159474 104.85
2.251687 8.49228 -1.8674628 104.85
2.3024867 8.6838713 -1.6926605 104.85
2.349611 8.7444439 -1.4876179 105.04
2.5964043 9.6629238 -1.4062051 105.04
3.2047014 11.926797 -1.4442178 105.04
5.1007667 18.983299 -1.8338726 105.04
6.3607378 23.672478 -1.714056 105.04
1.1886135 4.4236107 -2.0393775 105.04
8.1973085 30.507563 -1.4731543 105.04
1.2647479 4.7069564 -2.035804 105.04
11.050919 41.12772 -0.98873341 105.04
1.3550726 5.0431142 -2.0391209 105.04
1.4484332 5.3905702 -2.0315998 105.04
15.515595 57.74371 1.3881912 105.04
1.559598 5.8042874 -2.0308223 105.04
15.052938 56.021854 2.7051928 105.04
1.678012 6.2449837 -2.0178034 105.04
15.341669 57.096413 4.1341872 105.04
1.8254092 6.7935452 -2.0171142 105.04
17.372889 64.655914 6.2460537 105.04
1.9947159 7.4236465 -2.012336 105.04
2.0775876 7.7320662 -1.8970416 105.04
2.2600379 8.4110842 -1.8512456 105.04
2.3149505 8.615449 -1.6808107 105.04
2.5474467 9.3696985 -1.5952659 105.21
3.2395537 11.915318 -1.4439855 105.21
5.1612482 18.983454 -1.8353589 105.21
6.5858846 24.223372 -1.7553519 105.21
1.2022128 4.4218278 -2.0401909 105.21
8.2652512 30.400208 -1.4691482 105.21
1.2777398 4.6996217 -2.0342624 105.21
11.111523 40.869007 -0.98330212 105.21
1.3685635 5.0336781 -2.0369384 105.21
1.4634347 5.3826218 -2.0302315 105.21
15.686856 57.697422 1.3881912 105.21
1.5758185 5.7959776 -2.0295417 105.21
15.235339 56.036709 2.708081 105.21
1.696033 6.2381349 -2.0172079 105.21
15.215791 55.964806 4.0555019 105.21
1.8460624 6.7899542 -2.0176654 105.21
2.0136878 7.4064932 -2.0092969 105.21
2.0811179 7.6545057 -1.8795191 105.21
2.3425653 8.6161289 -1.682292 105.21
2.291424 8.3246365 -1.4185545 105.39
2.7084694 9.8397436 -1.4343179 105.39
3.2764435 11.903168 -1.4437531 105.39
5.2171617 18.953707 -1.8340584 105.39
6.67413 24.246805 -1.7585607 105.39
1.2160984 4.4180293 -2.0401909 105.39
8.3686686 30.402985 -1.4705456 105.39
1.2934772 4.6991429 -2.035804 105.39
1.3838761 5.0275578 -2.036211 105.39
1.481335 5.3816214 -2.0315998 105.39
1.5935165 5.7891717 -2.0289016 105.39
15.356698 55.790173 2.6984847 105.39
1.7181556 6.2419796 -2.0201864 105.39
15.391534 55.916729 4.0555019 105.39
1.8678948 6.785975 -2.0182166 105.39
2.0333517 7.3870726 -2.0057514 105.39
2.0937924 7.6066508 -1.8693745 105.39
2.2724376 8.2556601 -1.8200589 105.39
2.3508446 8.5405092 -1.6689609 105.39
2.3134665 8.3082952 -1.4169333 105.56
2.7020574 9.7038317 -1.4156687 105.56
3.302155 11.858948 -1.4395717 105.56
5.2701702 18.926634 -1.8329437 105.56
6.7449718 24.223051 -1.7582817 105.56
1.2287115 4.4126415 -2.0393775 105.56
7.4797273 26.861761 -1.3003298 105.56
1.3079093 4.697062 -2.0365748 105.56
1.3977876 5.0198402 -2.0347559 105.56
1.4988085 5.3826342 -2.0336518 105.56
15.816429 56.801155 1.3689263 105.56
1.6117028 5.7880688 -2.0301819 105.56
15.547887 55.836742 2.7029567 105.56
1.7356441 6.2331758 -2.018995 105.56
15.553628 55.857361 4.0545254 105.56
1.8854423 6.7711425 -2.0154603 105.56
2.0495515 7.3605042 -2.00018 105.56
2.1142645 7.5929055 -1.86753 105.56
2.2024639 7.9096541 -1.7452108 105.56
2.3524494 8.4482937 -1.6522973 105.56
2.7912683 9.923604 -1.448792 105.71
3.329963 11.838789 -1.4381779 105.71
3.9900463 14.185536 -1.3748007 105.71
6.8278122 24.274452 -1.7633041 105.71
1.2402595 4.4094095 -2.0393775 105.71
7.5711226 26.917091 -1.3039633 105.71
1.3202016 4.6936221 -2.0365748 105.71
11.71895 41.663578 -1.0048417 105.71
1.4129424 5.0233369 -2.0376658 105.71
1.5113684 5.3732643 -2.0315998 105.71
15.878458 56.451588 1.3614988 105.71
1.6263374 5.7820053 -2.0295417 105.71
15.679949 55.745842 2.7005343 105.71
1.7514396 6.2267728 -2.0183992 105.71
15.6285 55.562931 4.0361094 105.71
1.9031626 6.7661834 -2.0154603 105.71
2.0557172 7.3085504 -1.9875174 105.71
2.1320276 7.5798512 -1.8656856 105.71
2.2083321 7.851131 -1.7335677 105.71
2.3101659 8.2131739 -1.6074905 105.71
2.4135509 8.4728365 -1.447412 105.9
2.8062556 9.8514366 -1.4396065 105.9
3.3577752 11.787561 -1.4332997 105.9
5.3529301 18.791607 -1.8229114 105.9
6.9011664 24.226732 -1.7614905 105.9
1.2558759 4.4087868 -2.0410044 105.9
8.4638128 29.712444 -1.4407322 105.9
1.3357589 4.689218 -2.0365748 105.9
11.274767 39.580376 -0.95549554 105.9
1.4306134 5.0222073 -2.0391209 105.9
1.5296934 5.3700304 -2.0322838 105.9
16.097342 56.510155 1.3641912 105.9
1.6460214 5.7784028 -2.0301819 105.9
1.7710326 6.2172585 -2.0172079 105.9
15.847649 55.633602 4.0450382 105.9
1.9276963 6.767231 -2.0176654 105.9
2.0576797 7.2235403 -1.9662442 105.9
2.1576846 7.5746107 -1.8661467 105.9
2.1973748 7.7139444 -1.7048758 105.9
2.2006242 7.7253509 -1.5134332 105.9
2.3987999 8.327199 -1.4237424 106.07
2.4286823 8.430933 -1.2330737 106.07
3.3734891 11.710737 -1.4251691 106.07
5.4081111 18.773729 -1.8227255 106.07
6.9542408 24.140966 -1.756747 106.07
1.2684457 4.4032855 -2.0401909 106.07
8.3467627 28.97497 -1.4061673 106.07
1.3496662 4.6852341 -2.0365748 106.07
11.377764 39.496796 -0.9542886 106.07
1.4444768 5.01436 -2.0376658 106.07
1.5461401 5.3672738 -2.0329678 106.07
16.2987 56.579346 1.367023 106.07
1.66211 5.7698522 -2.0289016 106.07
16.021049 55.615509 2.6990438 106.07
1.7905288 6.2156453 -2.0183992 106.07
16.039709 55.680279 4.0518746 106.07
1.948831 6.7651763 -2.0187681 106.07
16.515383 57.331535 5.5662704 106.07
2.0598226 7.1504722 -1.9480102 106.07
2.1774559 7.558825 -1.8638411 106.07
2.2245851 7.7224298 -1.7082025 106.07
2.8214905 9.6800957 -1.4170605 106.25
4.6014924 15.787004 -1.9229909 106.25
5.4731932 18.777676 -1.8247691 106.25
7.0194397 24.082607 -1.7540963 106.25
1.2817615 4.3975248 -2.0393775 106.25
8.4573154 29.015736 -1.4094281 106.25
1.3638622 4.6791992 -2.035804 106.25
11.476613 39.374474 -0.95219964 106.25
1.4602228 5.0097976 -2.0376658 106.25
16.80765 57.664436 0 106.25
1.5614165 5.356977 -2.0309155 106.25
1.6818188 5.7700591 -2.0308223 106.25
16.167181 55.467083 2.6942923 106.25
1.8121839 6.2173214 -2.0207822 106.25
1.9711508 6.762712 -2.0198705 106.25
16.700985 57.298485 5.5681286 106.25
2.0644095 7.0826683 -1.9312955 106.25
16.018507 54.957008 6.6942291 106.25
2.2017365 7.5538154 -1.8643022 106.25
2.311789 7.9313893 -1.7560221 106.25
2.3159721 7.9457397 -1.559351 106.25
2.3642681 8.0227537 -1.3741335 106.42
2.9185014 9.9034529 -1.4510187 106.42
4.6387668 15.74089 -1.9190419 106.42
5.5350757 18.782366 -1.8268127 106.42
6.8444061 23.225361 -1.6931292 106.42
1.2948036 4.393702 -2.0393775 106.42
8.7223921 29.597996 -1.4389621 106.42
1.3777397 4.6751318 -2.035804 106.42
11.828512 40.138103 -0.97151101 106.42
1.4745541 5.0036559 -2.0369384 106.42
16.175869 54.890141 0 106.42
1.5778353 5.3541236 -2.0315998 106.42
16.187336 54.929054 1.3295143 106.42
1.6978604 5.7614088 -2.0295417 106.42
1.8311628 6.2137485 -2.021378 106.42
16.484438 55.937218 4.0778241 106.42
1.9901205 6.7531452 -2.0187681 106.42
2.064085 7.0041318 -1.9115419 106.42
2.2786014 7.7320576 -1.9099529 106.42
2.2545338 7.6503882 -1.5026944 106.42
2.5018861 8.3977633 -1.4396302 106.59
4.6877193 15.734672 -1.919971 106.59
5.5947595 18.779219 -1.8281133 106.59
6.9315157 23.266138 -1.6975936 106.59
1.3088776 4.393343 -2.0410044 106.59
7.8621302 26.389814 -1.2841188 106.59
1.391605 4.6710238 -2.035804 106.59
11.841937 39.748325 -0.96292299 106.59
1.4883299 4.995688 -2.0354836 106.59
12.807906 42.990669 0 106.59
1.5937144 5.3494186 -2.0315998 106.59
1.7154883 5.7581615 -2.0301819 106.59
16.540535 55.519512 2.7015593 106.59
1.8474108 6.2009692 -2.018995 106.59
16.837749 56.517136 4.1237235 106.59
2.0074041 6.7379985 -2.0160117 106.59
2.0644178 6.9293694 -1.8928013 106.59
2.3065336 7.7420487 -1.914103 106.59
2.2901106 7.6869235 -1.7048758 106.59
2.2727337 7.6285968 -1.499732 106.59
2.8504305 9.4649572 -1.3892258 106.76
4.7378211 15.732106 -1.9213649 106.76
5.6447115 18.743469 -1.8262554 106.76
6.9953389 23.228275 -1.6963379 106.76
1.3219072 4.3894405 -2.0410044 106.76
9.0724335 30.125343 -1.4671916 106.76
1.405458 4.6668739 -2.035804 106.76
1.503683 4.9930339 -2.036211 106.76
12.749699 42.335835 0 106.76
1.6101213 5.3464656 -2.0322838 106.76
17.045181 56.599136 1.3723614 106.76
1.7320192 5.7512321 -2.0295417 106.76
16.794487 55.766701 2.7160001 106.76
1.8663518 6.1972885 -2.0195909 106.76
16.827591 55.876621 4.0806141 106.76
2.0273874 6.7320127 -2.0160117 106.76
2.0699046 6.8731928 -1.8791257 106.76
2.3407183 7.77244 -1.9233253 106.76
2.3202417 7.7044463 -1.7102816 106.76
2.3526003 7.8118949 -1.5371327 106.76
2.5516191 8.3931007 -1.4412514 106.91
2.988687 9.830759 -1.4440601 106.91
4.7749467 15.706345 -1.9197388 106.91
5.6856532 18.701954 -1.8236544 106.91
7.0630903 23.232788 -1.6980121 106.91
1.3328626 4.3842163 -2.0401909 106.91
8.7038183 28.629673 -1.3954531 106.91
1.4182079 4.6649442 -2.0365748 106.91
11.532183 37.933079 -0.92049366 106.91
1.5162077 4.9872975 -2.0354836 106.91
1.6235662 5.3404341 -2.0315998 106.91
17.193298 56.554317 1.3723614 106.91
1.7465187 5.7448649 -2.0289016 106.91
1.8803486 6.1850743 -2.0172079 106.91
17.135147 56.363041 4.1193986 106.91
2.0388534 6.7064486 -2.0099475 106.91
2.0794499 6.839983 -1.8715283 106.91
2.3503034 7.7309079 -1.9145641 106.91
2.3034172 7.5766845 -1.683253 106.91
2.3701854 7.7963066 -1.5352812 106.91
2.3763323 7.7243886 -1.327767 107.1
2.9199405 9.491415 -1.3956279 107.1
4.8083134 15.629667 -1.9123051 107.1
5.7394423 18.656349 -1.8210535 107.1
7.1412673 23.213053 -1.6982911 107.1
1.345245 4.372787 -2.036937 107.1
8.8057594 28.623568 -1.3965712 107.1
1.4331269 4.658452 -2.035804 107.1
11.673783 37.946228 -0.92174709 107.1
1.534929 4.9893646 -2.0383935 107.1
1.6412667 5.3350205 -2.0315998 107.1
17.467169 56.77792 1.3791854 107.1
1.7655598 5.7390418 -2.0289016 107.1
17.297237 56.225548 2.7432981 107.1
1.8997258 6.1751552 -2.0160162 107.1
17.371824 56.467995 4.1312575 107.1
2.0475144 6.6555495 -1.996717 107.1
2.1009829 6.8293514 -1.8705152 107.1
2.3570433 7.6616888 -1.8993472 107.1
2.3147242 7.5241284 -1.6732733 107.1
2.3671303 7.6944771 -1.516766 107.1
2.5864458 8.3245859 -1.4321727 107.26
4.8708019 15.676884 -1.9197388 107.26
5.8021536 18.67448 -1.8243976 107.26
7.160481 23.046314 -1.6875486 107.26
1.3601614 4.3777375 -2.0410044 107.26
8.5525188 27.526646 -1.3442113 107.26
1.4444875 4.6491446 -2.0334914 107.26
10.940246 35.211647 -0.8560605 107.26
1.5477505 4.9815006 -2.0369384 107.26
1.6561584 5.3304167 -2.0315998 107.26
17.560989 56.520794 1.3741255 107.26
1.7821416 5.7358985 -2.0295417 107.26
17.446474 56.152222 2.7420869 107.26
1.9169627 6.1698265 -2.0160162 107.26
17.588049 56.607887 4.1450691 107.26
2.0427046 6.574532 -1.9741148 107.26
2.1194718 6.82161 -1.8700087 107.26
2.3986394 7.7201233 -1.9154863 107.26
2.3995759 7.7231374 -1.7190138 107.26
2.3641155 7.6090064 -1.5012132 107.26
2.6223223 8.3423214 -1.436712 107.45
2.5342145 8.062027 -1.1877033 107.45
4.9156132 15.637904 -1.9169512 107.45
5.8640485 18.655136 -1.8243976 107.45
7.2590022 23.092865 -1.6927106 107.45
1.3724794 4.366231 -2.0377505 107.45
8.1303282 25.864788 -1.2643673 107.45
1.4615569 4.6496105 -2.035804 107.45
11.04376 35.133209 -0.85503924 107.45
1.5625852 4.9710093 -2.0347559 107.45
1.6738256 5.3248954 -2.0315998 107.45
17.802286 56.633919 1.3783034 107.45
1.8005844 5.7281494 -2.0289016 107.45
17.752405 56.475235 2.7607203 107.45
1.9356945 6.1579714 -2.0142291 107.45
17.816954 56.68058 4.1546955 107.45
2.048353 6.5163689 -1.9586791 107.45
2.1415012 6.8126984 -1.8695022 107.45
2.424227 7.7121267 -1.9154863 107.45
2.3811755 7.5751677 -1.6878271 107.45
2.374011 7.5523758 -1.4915853 107.45
2.544908 8.0128613 -1.3812668 107.62
2.5563252 8.0488091 -1.1868682 107.62
4.9752188 15.664903 -1.9220618 107.62
5.9229903 18.649042 -1.8255123 107.62
7.3335276 23.09024 -1.6941057 107.62
1.3854282 4.3621397 -2.0377505 107.62
8.9284992 28.112144 -1.3755155 107.62
1.4764633 4.6487713 -2.0373456 107.62
11.288976 35.544308 -0.86585546 107.62
1.5784554 4.969902 -2.036211 107.62
1.6890486 5.3181143 -2.0309155 107.62
1.8175722 5.7227821 -2.0289016 107.62
1.953379 6.1503816 -2.0136333 107.62
2.0490558 6.4516282 -1.9410383 107.62
2.1599483 6.8007822 -1.8679827 107.62
2.4200003 7.6195784 -1.8942748 107.62
2.4190376 7.6165466 -1.6986386 107.62
2.3987887 7.5527916 -1.4930665 107.62
2.5771132 8.0315838 -1.3858062 107.79
3.0443158 9.4876223 -1.4003597 107.79
5.0259242 15.663312 -1.9236878 107.79
5.9789057 18.633284 -1.8256981 107.79
7.3946905 23.045582 -1.6924316 107.79
1.4000396 4.3632288 -2.0401909 107.79
8.1737976 25.473673 -1.2475973 107.79
1.4908139 4.6461272 -2.0381165 107.79
11.322913 35.287903 -0.86042416 107.79
1.5931945 4.9651971 -2.036211 107.79
1.7053945 5.3148689 -2.0315998 107.79
1.8362808 5.7227764 -2.0308223 107.79
18.133001 56.51157 2.7677078 107.79
1.9663692 6.1281972 -2.0082715 107.79
20.799129 64.820572 4.7603211 107.79
2.0499802 6.3887715 -1.9239488 107.79
2.1801171 6.7943435 -1.8679827 107.79
2.4396245 7.6030993 -1.8919693 107.79
2.3812573 7.4211979 -1.6566404 107.79
2.474031 7.7103276 -1.5256532 107.79
2.6991434 8.3219337 -1.4373605 107.97
3.0643303 9.4478683 -1.3959062 107.97
5.0793967 15.660673 -1.9253139 107.97
6.0380282 18.616302 -1.8258839 107.97
1.4143038 4.3605471 -2.0410044 107.97
8.2340612 25.387058 -1.244616 107.97
1.5048333 4.6396656 -2.0373456 107.97
11.264694 34.73103 -0.84770465 107.97
1.6099347 4.9637113 -2.0376658 107.97
13.931483 42.953209 0 107.97
1.7209237 5.3059096 -2.0302315 107.97
1.8548349 5.7187815 -2.0314624 107.97
1.9761872 6.0929322 -1.9987395 107.97
21.161474 65.244537 4.7963157 107.97
2.0569921 6.3420677 -1.9118207 107.97
2.2259252 6.8629184 -1.8887494 107.97
2.3333406 7.1940985 -1.6075732 107.97
2.4618595 7.5903444 -1.503435 107.97
2.6646454 8.1380606 -1.4068818 108.13
3.0586548 9.3414001 -1.3814322 108.13
5.1169286 15.627549 -1.9229909 108.13
6.0924702 18.606937 -1.826627 108.13
7.7237725 23.589079 -1.7356806 108.13
1.4247695 4.3513713 -2.038564 108.13
8.2645149 25.240553 -1.2385602 108.13
1.5166353 4.6319375 -2.035804 108.13
11.510339 35.153584 -0.8587994 108.13
1.6255289 4.9645081 -2.0398483 108.13
1.7357337 5.3010831 -2.0302315 108.13
1.8654912 5.6973734 -2.0257003 108.13
1.9872532 6.0692458 -1.992782 108.13
2.056149 6.2796593 -1.8947312 108.13
2.3076956 7.047905 -1.9414256 108.13
2.3990772 7.3269925 -1.63876 108.13
2.4750953 7.5591583 -1.4986211 108.13
2.6087031 7.8926105 -1.3657032 108.29
3.066704 9.2782879 -1.3733602 108.29
5.1530681 15.590566 -1.9202033 108.29
6.147531 18.599306 -1.8275559 108.29
7.3056211 22.103098 -1.6278371 108.29
1.4386355 4.3525801 -2.0410044 108.29
8.3387289 25.228758 -1.2391192 108.29
1.5295641 4.6276841 -2.035804 108.29
12.510784 37.851276 -0.92555362 108.29
1.6370474 4.9528737 -2.0369384 108.29
13.108543 39.65979 0 108.29
1.7499406 5.2944312 -2.0295475 108.29
1.8819885 5.6939411 -2.0263405 108.29
1.9976032 6.0437322 -1.9862288 108.29
21.174906 64.064507 4.7181883 108.29
2.0585935 6.2282581 -1.8809493 108.29
2.3261538 7.0377588 -1.9404126 108.29
2.2554755 6.8239226 -1.7029107 108.29
2.4318075 7.3574138 -1.6470764 108.29
2.6577308 7.961587 -1.3789971 108.46
3.1117792 9.3217497 -1.3811538 108.46
5.1955295 15.563902 -1.9188095 108.46
6.1938615 18.554539 -1.824955 108.46
7.325685 21.945066 -1.6177921 108.46
1.4521221 4.3500252 -2.0418179 108.46
8.3357382 24.970816 -1.2276596 108.46
1.5438724 4.624876 -2.0365748 108.46
12.647727 37.887955 -0.92736411 108.46
1.6535053 4.9532962 -2.0391209 108.46
14.279311 42.775581 0 108.46
1.7662369 5.2909985 -2.0302315 108.46
1.8940748 5.673954 -2.0212188 108.46
2.0064585 6.0106144 -1.9772925 108.46
2.0715854 6.2057104 -1.8759879 108.46
2.3298709 6.9794393 -1.9262305 108.46
2.3194644 6.9482651 -1.7356501 108.46
2.473449 7.4095464 -1.6603827 108.46
2.4992993 7.4869847 -1.4871416 108.46
2.5080376 7.431025 -1.2885338 108.65
3.1426742 9.3113794 -1.3811538 108.65
5.2464776 15.544705 -1.9185772 108.65
6.2521725 18.524464 -1.824026 108.65
7.4079871 21.949009 -1.6198848 108.65
1.4642022 4.3382616 -2.038564 108.65
8.4517202 25.041468 -1.2325042 108.65
1.5592005 4.6197309 -2.0365748 108.65
12.619204 37.389236 -0.9161765 108.65
1.667539 4.9407248 -2.036211 108.65
1.7825707 5.2815509 -2.0288634 108.65
1.9062148 5.6478939 -2.0141761 108.65
2.0135581 5.9659395 -1.9647818 108.65
21.539371 63.818665 4.7099571 108.65
2.091538 6.1969848 -1.8754365 108.65
21.995319 65.169586 6.416975 108.65
2.381464 7.0560021 -1.9495296 108.65
2.4296207 7.1986847 -1.8002067 108.65
2.4623473 7.29565 -1.6366808 108.65
2.5140569 7.4488597 -1.4812168 108.65
2.7057922 7.939127 -1.3780243 108.82
4.3631387 12.801986 -1.9008262 108.82
5.286809 15.512148 -1.9164865 108.82
6.3006845 18.486982 -1.8221682 108.82
1.477657 4.3356276 -2.0393775 108.82
7.4973731 21.998217 -1.08381 108.82
1.5740914 4.618578 -2.0381165 108.82
12.298566 36.085506 -0.88512045 108.82
1.683393 4.9392824 -2.0376658 108.82
1.7982335 5.2762384 -2.0288634 108.82
1.9199078 5.6332459 -2.0109749 108.82
2.0386412 5.9816246 -1.9719309 108.82
21.806509 63.982979 4.7268381 108.82
2.1099155 6.190752 -1.8754365 108.82
22.121132 64.90612 6.3974676 108.82
2.3880334 7.006784 -1.93788 108.82
2.4767091 7.2669692 -1.8191125 108.82
2.5016537 7.3401594 -1.6483239 108.82
2.5830657 7.5790329 -1.5086193 108.82
2.7498863 7.9907799 -1.3884001 108.99
2.7293417 7.9310803 -1.1787962 108.99
5.3360429 15.505785 -1.9176481 108.99
6.3412528 18.426781 -1.8180809 108.99
1.491109 4.3329515 -2.0401909 108.99
8.1320972 23.630724 -1.1654242 108.99
1.587788 4.6138873 -2.0381165 108.99
12.363289 35.925964 -0.88210303 108.99
1.6980407 4.9342656 -2.0376658 108.99
12.657531 36.780991 0 108.99
1.8144921 5.2726569 -2.0295475 108.99
1.9366136 5.6275244 -2.0109749 108.99
22.089739 64.189651 3.1657164 108.99
2.0364997 5.9177794 -1.9528668 108.99
2.1270235 6.1808286 -1.874334 108.99
22.314911 64.843971 6.3978391 108.99
2.3773329 6.9081926 -1.912555 108.99
2.5616164 7.4436941 -1.6732733 108.99
2.6304846 7.6438155 -1.5230612 108.99
2.9625273 8.5311832 -1.483727 109.15
4.4575906 12.836514 -1.9097333 109.15
5.3786707 15.488947 -1.9174157 109.15
6.3920317 18.40712 -1.8178952 109.15
7.6326227 21.979649 -1.627 109.15
1.5020044 4.3253188 -2.038564 109.15
8.7616758 25.230978 -1.2455477 109.15
1.5982447 4.6024618 -2.0350332 109.15
1.711202 4.9277449 -2.0369384 109.15
13.048214 37.574917 0 109.15
1.826743 5.260468 -2.0268114 109.15
1.9510778 5.6185145 -2.0096943 109.15
2.0511384 5.9066591 -1.9510796 109.15
2.143014 6.1712327 -1.8732314 109.15
22.565145 64.980804 6.4175324 109.15
2.5753338 7.4161835 -1.6686993 109.15
2.5731614 7.4099274 -1.4778841 109.15
2.6496303 7.5492573 -1.3144732 109.34
3.2217834 9.1794205 -1.3672365 109.34
5.4300046 15.471025 -1.9174157 109.34
6.4556746 18.393339 -1.8186383 109.34
7.7160397 21.984337 -1.6292322 109.34
1.5163394 4.3203144 -2.038564 109.34
10.735566 30.587492 -1.5117253 109.34
1.6134982 4.5971365 -2.0350332 109.34
12.589138 35.868641 -0.88256723 109.34
1.7269167 4.9202852 -2.036211 109.34
15.16972 43.221165 0 109.34
1.8485341 5.2667947 -2.0315998 109.34
1.9690713 5.6102262 -2.0090542 109.34
2.0530105 5.8493834 -1.9343987 109.34
22.542889 64.2286 4.759903 109.34
2.1621933 6.1604643 -1.872129 109.34
22.583981 64.34568 6.3621688 109.34
2.3586164 6.7201076 -1.8644372 109.34
2.2673569 6.4600935 -1.6222149 109.34
2.61287 7.4445205 -1.6770157 109.34
2.6582527 7.5738235 -1.5123223 109.34
2.9045691 8.2022505 -1.4295787 109.5
4.5511265 12.851984 -1.9161353 109.5
5.1555638 14.558864 -1.8061434 109.5
6.4970427 18.347082 -1.8158516 109.5
7.7467661 21.876192 -1.6228147 109.5
1.5314475 4.3246746 -2.0426314 109.5
10.8016 30.502779 -1.5090235 109.5
1.6269455 4.5943522 -2.035804 109.5
12.273441 34.65913 -0.85364658 109.5
1.7418936 4.9189558 -2.0376658 109.5
13.292857 37.537868 0 109.5
1.8626071 5.2598405 -2.0309155 109.5
1.9828328 5.5993471 -2.0071335 109.5
22.328775 63.05452 3.1194127 109.5
2.0540416 5.8004346 -1.9201006 109.5
2.1883726 6.1797738 -1.8798468 109.5
22.996233 64.939362 6.4271932 109.5
2.0893242 5.9000697 -1.6385369 109.5
2.5218523 7.121491 -1.7900621 109.5
2.5605102 7.2306576 -1.6304435 109.5
2.6275628 7.4200082 -1.4830682 109.5
2.8193309 7.8827548 -1.3754305 109.68
6.5385547 18.28158 -1.8113928 109.68
8.4000006 23.48612 -1.7441908 109.68
1.5425651 4.3129606 -2.0393775 109.68
10.834131 30.291868 -1.5002658 109.68
1.642614 4.5926938 -2.0373456 109.68
12.793683 35.77071 -0.88201016 109.68
1.7554562 4.9081969 -2.0354836 109.68
15.127556 42.296139 0 109.68
1.8759576 5.2451148 -2.0274954 109.68
1.9991378 5.5895224 -2.0058529 109.68
2.0555372 5.7472134 -1.9046111 109.68
2.2395008 6.261569 -1.9068593 109.68
2.5693781 7.1838951 -1.6217111 109.68
2.6303418 7.3543477 -1.4715889 109.68
2.7582762 7.6446571 -1.3352245 109.84
4.6454601 12.875051 -1.9236506 109.84
5.0652275 14.038452 -1.7452804 109.84
6.5524087 18.160227 -1.8011746 109.84
8.4425306 23.398764 -1.7394475 109.84
1.5552232 4.3103547 -2.0401909 109.84
10.768829 29.846182 -1.479676 109.84
1.6541802 4.5846171 -2.035804 109.84
12.894881 35.738605 -0.88210303 109.84
1.7710525 4.9085326 -2.0376658 109.84
15.608762 43.26022 0 109.84
1.892511 5.2451591 -2.0295475 109.84
2.0153818 5.5857 -2.0064933 109.84
2.057323 5.701941 -1.8915046 109.84
23.188519 64.267776 4.7776208 109.84
2.2765524 6.3095431 -1.9233974 109.84
2.410831 6.6817007 -1.6830826 109.84
2.6930065 7.4637599 -1.6865796 109.84
2.6715474 7.4042854 -1.4830682 109.84
2.8390326 7.7917142 -1.3624609 110.02
2.8735032 7.8863187 -1.1796312 110.02
5.1113458 14.028069 -1.7459773 110.02
6.6053381 18.128325 -1.8000599 110.02
6.8480425 18.794428 -1.3987569 110.02
1.5681314 4.303731 -2.0393775 110.02
10.839287 29.748381 -1.4765083 110.02
1.6685749 4.5793977 -2.035804 110.02
12.751086 34.995308 -0.86474138 110.02
1.7851888 4.8994436 -2.036211 110.02
1.9089798 5.2391877 -2.0295475 110.02
2.0277305 5.5650988 -2.0013714 110.02
2.0641146 5.6649542 -1.8813769 110.02
2.3009703 6.3150043 -1.9272563 110.02
2.0401165 5.5990925 -1.5600289 110.02
2.4064927 6.6046104 -1.6655601 110.02
2.5925403 7.1152172 -1.6096523 110.02
2.6954684 7.3977027 -1.4834386 110.02
2.9759378 8.0883627 -1.4159606 110.2
4.7303672 12.856762 -1.9253206 110.2
5.1780262 14.073463 -1.7536433 110.2
6.6533184 18.083189 -1.7976447 110.2
6.8443618 18.60243 -1.3860612 110.2
1.5810133 4.2970686 -2.038564 110.2
10.84577 29.47794 -1.4647692 110.2
1.6842278 4.5775971 -2.0373456 110.2
12.745666 34.641705 -0.85698897 110.2
1.7979988 4.8868175 -2.0333011 110.2
1.9273765 5.2384562 -2.0315998 110.2
2.0425868 5.5515881 -1.9988105 110.2
2.0772865 5.6458993 -1.8772067 110.2
23.550529 64.008469 4.7692499 110.2
2.2570691 6.1345344 -1.874334 110.2
2.0583646 5.5944715 -1.5605354 110.2
2.3318071 6.3376665 -1.6000813 110.2
2.60745 7.0868421 -1.6050782 110.2
2.7410913 7.4500675 -1.4956586 110.2
2.742316 7.3857002 -1.2943702 110.37
4.7691827 12.844526 -1.925599 110.37
5.2287493 14.082248 -1.7566632 110.37
6.7020907 18.050301 -1.7963443 110.37
6.9078598 18.604486 -1.3877352 110.37
1.5956639 4.2974973 -2.0410044 110.37
11.092433 29.874521 -1.4861045 110.37
1.6965176 4.5691195 -2.035804 110.37
12.695974 34.193237 -0.84682262 110.37
1.8137873 4.8849545 -2.0347559 110.37
1.9422567 5.2309527 -2.0309155 110.37
2.0458591 5.5099778 -1.9860058 110.37
2.0966873 5.6468706 -1.8795897 110.37
23.636173 63.657753 4.748323 110.37
2.1614976 5.8214197 -1.7806174 110.37
2.1039138 5.6663332 -1.5823151 110.37
2.2401838 6.0333405 -1.5249189 110.37
2.5378995 6.8351579 -1.5497737 110.37
2.616781 7.0476046 -1.4164135 110.37
4.8091998 12.842287 -1.9272691 110.53
6.7629457 18.059488 -1.799131 110.53
6.9870744 18.657991 -1.3931763 110.53
1.6076586 4.2930245 -2.0410044 110.53
11.151993 29.779818 -1.4829369 110.53
1.7092704 4.5643644 -2.035804 110.53
12.655376 33.794388 -0.83781683 110.53
1.8287283 4.8833594 -2.036211 110.53
1.9561976 5.2237482 -2.0302315 110.53
2.0426321 5.4545598 -1.9680792 110.53
2.1104395 5.6356297 -1.8778024 110.53
2.1150427 5.647922 -1.7293488 110.53
2.1360137 5.7039218 -1.5944711 110.53
2.5068939 6.6943045 -1.5194186 110.53
2.6612651 7.1065311 -1.4297445 110.53
2.9647627 7.841877 -1.3773758 110.71
4.854424 12.840083 -1.9292176 110.71
5.7751627 15.275461 -1.9097497 110.71
6.8189435 18.036289 -1.7989452 110.71
7.0738778 18.710596 -1.3987569 110.71
1.6204915 4.2862434 -2.0401909 110.71
11.326036 29.95767 -1.4935578 110.71
1.7236013 4.5589719 -2.035804 110.71
12.544407 33.180294 -0.82356542 110.71
1.8447196 4.879333 -2.0369384 110.71
12.503936 33.07325 0 110.71
1.9699403 5.2105451 -2.0274954 110.71
2.045687 5.4108968 -1.9546343 110.71
2.1254332 5.6218281 -1.8754194 110.71
2.1470532 5.6790137 -1.7409256 110.71
2.1506906 5.6886344 -1.4409953 110.71
2.5797987 6.8236375 -1.5506054 110.71
2.8260624 7.4750113 -1.5056568 110.71
2.9915338 7.8422656 -1.3789971 110.88
4.8924999 12.825624 -1.9292176 110.88
5.8289566 15.280531 -1.9125375 110.88
6.873848 18.019699 -1.7993168 110.88
7.0390539 18.452785 -1.3810387 110.88
1.6338531 4.283124 -2.0410044 110.88
11.335123 29.714872 -1.4831232 110.88
1.7364627 4.5521135 -2.0350332 110.88
12.473906 32.700176 -0.81256348 110.88
1.8591887 4.8738384 -2.0369384 110.88
1.9847218 5.2029214 -2.0268114 110.88
2.0448494 5.3605452 -1.9386284 110.88
2.1421041 5.6154971 -1.8754194 110.88
2.1453638 5.624042 -1.4262396 110.88
2.6704555 7.0005631 -1.5926036 110.88
2.8167062 7.3839574 -1.4889932 110.88
4.9291101 12.807354 -1.9286609 111.05
5.8685608 15.248338 -1.910679 111.05
6.9229913 17.988075 -1.798202 111.05
7.1482358 18.57333 -1.3916416 111.05
1.6458979 4.2765522 -2.0401909 111.05
11.382336 29.574831 -1.4778126 111.05
1.7512871 4.550386 -2.0365748 111.05
1.8736415 4.8683004 -2.0369384 111.05
2.0001504 5.1970096 -2.0268114 111.05
2.0471342 5.3190885 -1.9258238 111.05
2.1566989 5.6037712 -1.8736322 111.05
2.1351397 5.5477538 -1.7045414 111.05
2.2648313 5.8847322 -1.6506929 111.05
2.2550097 5.8592129 -1.4875684 111.05
2.3799331 6.1838031 -1.4083937 111.05
2.8329549 7.3608937 -1.4860307 111.05
3.1658816 8.1536875 -1.4370363 111.22
4.9563355 12.764978 -1.9244857 111.22
5.9173727 15.240117 -1.9118404 111.22
6.9583135 17.921045 -1.7935575 111.22
1.6585793 4.2716498 -2.0401909 111.22
7.3186378 18.849058 -0.94294173 111.22
1.7641127 4.5434494 -2.035804 111.22
12.535294 32.284485 -0.80406833 111.22
1.8874035 4.8609829 -2.036211 111.22
2.0135207 5.1857963 -2.0247593 111.22
2.049191 5.2776651 -1.9130192 111.22
2.0875719 5.3765144 -1.6538241 111.22
2.2920859 5.9032373 -1.657784 111.22
2.4294648 6.2570553 -1.5903978 111.22
2.4322584 6.2642498 -1.4283533 111.22
2.7103717 6.9805274 -1.410859 111.22
3.0633039 7.8166299 -1.3793213 111.4
4.9956908 12.7475 -1.9242073 111.4
5.9652219 15.221452 -1.9118404 111.4
6.9985943 17.858309 -1.7894702 111.4
7.0802937 18.06678 -1.356903 111.4
1.6713243 4.2647171 -2.0393775 111.4
11.523421 29.404305 -1.4727817 111.4
1.7797244 4.5413213 -2.0373456 111.4
12.589965 32.125805 -0.80109733 111.4
1.9047047 4.8602333 -2.0383935 111.4
2.0250022 5.1671963 -2.0199709 111.4
2.0533168 5.2394471 -1.9014949 111.4
2.2124853 5.6455975 -1.8921003 111.4
2.0834079 5.3162303 -1.6372859 111.4
2.2047255 5.6257963 -1.5818086 111.4
2.4569209 6.2693233 -1.5954701 111.4
2.5211654 6.4332557 -1.4686881 111.4
2.7681451 7.0634737 -1.4293742 111.4
3.1583121 7.9892049 -1.4114212 111.57
5.0225697 12.704994 -1.9200321 111.57
6.0118189 15.20738 -1.9123051 111.57
7.0054283 17.720795 -1.7777659 111.57
1.6846423 4.2614384 -2.0401909 111.57
7.3638678 18.627497 -0.93409085 111.57
1.7945478 4.5394535 -2.0388875 111.57
12.261824 31.017271 -0.77435851 111.57
1.9184319 4.852828 -2.0376658 111.57
17.155445 43.39608 0 111.57
2.0299606 5.1349487 -2.0097103 111.57
2.0577083 5.2051387 -1.8912512 111.57
16.840092 42.59837 2.1361296 111.57
2.06779 5.2306414 -1.755078 111.57
16.8496 42.622421 3.2048914 111.57
2.1196692 5.3618741 -1.6532729 111.57
2.1132894 5.3457355 -1.5048201 111.57
2.4146969 6.1081705 -1.556275 111.57
2.7114134 6.8587389 -1.5676541 111.57
2.933603 7.4207854 -1.503435 111.57
4.418839 11.081526 -1.960037 111.74
5.0492401 12.662441 -1.915857 111.74
6.0591211 15.195011 -1.913002 111.74
6.9938059 17.539005 -1.7616026 111.74
6.7432485 16.91066 -1.2730557 111.74
1.6952486 4.2513299 -2.0377505 111.74
11.620008 29.140554 -1.4629991 111.74
1.8039074 4.5238233 -2.0342624 111.74
12.356022 30.986324 -0.77449781 111.74
1.9307519 4.8419232 -2.0354836 111.74
16.987812 42.601887 0 111.74
2.0298729 5.0904975 -1.9946615 111.74
2.0703359 5.1919703 -1.8886902 111.74
2.1837175 5.4763083 -1.8396745 111.74
2.1377053 5.360919 -1.6549267 111.74
2.1427572 5.3735886 -1.5144436 111.74
2.1682642 5.4375539 -1.3870445 111.74
2.6846526 6.7325487 -1.5406256 111.74
2.9410484 7.375536 -1.4960289 111.74
3.1924963 7.9415836 -1.4062333 111.9
5.0808873 12.639104 -1.9144652 111.9
6.1059752 15.189091 -1.9143958 111.9
7.0323582 17.49354 -1.7590017 111.9
6.8283978 16.986172 -1.2801708 111.9
1.7064325 4.244884 -2.036937 111.9
11.559756 28.755796 -1.4452974 111.9
1.8206633 4.5290422 -2.0388875 111.9
1.9463502 4.8416982 -2.0376658 111.9
17.349154 43.157375 0 111.9
2.0300605 5.0499339 -1.9809806 111.9
2.0841198 5.184411 -1.88805 111.9
2.1455934 5.3373313 -1.7949932 111.9
2.1125109 5.2550364 -1.6240553 111.9
2.1144555 5.2598729 -1.4840535 111.9
2.2095718 5.4964824 -1.4036448 111.9
2.6042073 6.478169 -1.4840736 111.9
2.60829 6.4883251 -1.3175423 111.9
3.2144623 7.9241996 -1.4049364 112.08
5.1138687 12.606562 -1.91196 112.08
6.1469426 15.153266 -1.9123051 112.08
6.8065743 16.779371 -1.6893327 112.08
6.7714815 16.692862 -1.2596624 112.08
1.7211332 4.2428885 -2.038564 112.08
11.624504 28.656395 -1.4421297 112.08
1.8334953 4.5198798 -2.0373456 112.08
12.381844 30.523365 -0.76474923 112.08
1.9615512 4.8355598 -2.0376658 112.08
2.0310795 5.006959 -1.9666158 112.08
2.1003969 5.1778378 -1.88805 112.08
2.1558914 5.3146415 -1.7896315 112.08
2.0914304 5.1557345 -1.595389 112.08
2.1266055 5.2424469 -1.4810145 112.08
2.2773051 5.6139474 -1.435462 112.08
2.6318998 6.4880838 -1.4882319 112.08
3.913439 9.6472969 -1.9615012 112.08
4.5135646 11.032621 -1.9584159 112.25
5.1512504 12.591333 -1.91196 112.25
6.1881151 15.125769 -1.9111435 112.25
6.8080721 16.641146 -1.6774426 112.25
6.8640413 16.777952 -1.2676146 112.25
1.7344064 4.2394538 -2.0393775 112.25
9.2494211 22.608597 -1.1391511 112.25
1.8455003 4.5110035 -2.035804 112.25
12.488253 30.525354 -0.76572412 112.25
1.97589 4.8297186 -2.0376658 112.25
2.0324056 4.9678612 -1.953619 112.25
2.1150331 5.1698294 -1.8874098 112.25
2.2251468 5.4389834 -1.833717 112.25
2.1110864 5.1601825 -1.5986967 112.25
2.1626639 5.2862549 -1.4951966 112.25
2.6845062 6.5618072 -1.6798548 112.25
2.69188 6.5798311 -1.5111022 112.25
4.5459433 11.012915 -1.9574431 112.43
5.185492 12.562273 -1.9100116 112.43
6.7668614 16.393269 -1.6545912 112.43
1.7491107 4.2373619 -2.0410044 112.43
9.3356485 22.616362 -1.1410145 112.43
1.8589588 4.5034776 -2.0350332 112.43
12.204164 29.565571 -0.74260616 112.43
1.9896315 4.8200431 -2.036211 112.43
18.018526 43.651333 0 112.43
2.0336609 4.9267077 -1.9399383 112.43
2.1023459 5.0931029 -1.8618004 112.43
2.1868594 5.2978435 -1.78844 112.43
2.1771684 5.2743659 -1.6361834 112.43
2.2597277 5.4743729 -1.5504054 112.43
2.384326 5.7762222 -1.4806516 112.43
2.3348427 5.6563449 -1.3006955 112.43
2.8669236 6.9453535 -1.4156729 112.43
4.5805187 10.998579 -1.9574431 112.61
5.2234092 12.542264 -1.9094549 112.61
6.2685199 15.051747 -1.9067298 112.61
6.0764742 14.590613 -1.4745666 112.61
7.5353994 18.093733 -1.3705752 112.61
1.7603068 4.2267861 -2.038564 112.61
11.7178 28.136366 -1.4213535 112.61
1.8745167 4.5010228 -2.0365748 112.61
12.590631 30.232176 -0.7603392 112.61
2.0047643 4.8137689 -2.036211 112.61
13.696646 32.887897 0 112.61
2.0390129 4.8960052 -1.9303617 112.61
2.1066809 5.0584869 -1.8515567 112.61
26.908083 64.610725 3.2639143 112.61
2.1822059 5.2398353 -1.7711632 112.61
2.2255099 5.3438153 -1.6598881 112.61
2.2739394 5.4601021 -1.5483794 112.61
2.3500869 5.6429453 -1.4483733 112.61
2.8143969 6.7578292 -1.5560111 112.61
2.7844534 6.6859303 -1.364571 112.61
4.607007 10.98109 -1.9564704 112.76
5.2301755 12.466451 -1.8999912 112.76
6.1211567 14.590161 -1.8502806 112.76
6.07305 14.475495 -1.4645343 112.76
7.3218546 17.452101 -1.3234198 112.76
1.7734871 4.2272177 -2.0410044 112.76
9.4162874 22.444311 -1.1350517 112.76
1.8870078 4.4978018 -2.0373456 112.76
12.647304 30.145641 -0.75899297 112.76
2.0123146 4.7964783 -2.0311186 112.76
2.0387361 4.8594556 -1.918049 112.76
2.1397085 5.1001291 -1.868843 112.76
2.1774509 5.1900907 -1.7562695 112.76
2.2387486 5.3361979 -1.6593369 112.76
2.2365782 5.3310246 -1.5134307 112.76
2.4296014 5.7911072 -1.4880295 112.76
2.854784 6.8045568 -1.5684857 112.76
4.0474267 9.647295 -1.9711292 112.76
4.6395483 10.956665 -1.9548491 112.95
5.2923379 12.498281 -1.9075065 112.95
6.1509161 14.525881 -1.8447053 112.95
6.1365485 14.491951 -1.4682499 112.95
7.1875324 16.973934 -1.2889601 112.95
1.7874953 4.2213135 -2.0410044 112.95
9.5973883 22.665001 -1.1478156 112.95
1.8997539 4.4864211 -2.0350332 112.95
12.815809 30.26556 -0.76307809 112.95
2.0267563 4.7863479 -2.0296638 112.95
2.0416486 4.821517 -1.9057362 112.95
27.54019 65.038368 1.6397963 112.95
2.1750798 5.1366253 -1.8848488 112.95
2.199861 5.195148 -1.7604398 112.95
27.61665 65.218933 4.95257 112.95
2.2339425 5.2756338 -1.6427987 112.95
2.2270846 5.259439 -1.4951966 112.95
2.5178468 5.9460969 -1.5299913 112.95
2.5645795 6.0564599 -1.3979982 112.95
4.0862932 9.6501093 -1.9744619 112.95
4.6530857 10.903733 -1.9477159 113.11
5.3178911 12.461594 -1.9041663 113.11
6.1727433 14.464798 -1.8391302 113.11
7.1307545 16.709738 -1.2704049 113.11
1.7985593 4.2146249 -2.0401909 113.11
9.5461578 22.369835 -1.1342133 113.11
1.914448 4.4861908 -2.0373456 113.11
12.423128 29.111536 -0.73485374 113.11
2.0298774 4.75668 -2.019479 113.11
2.0469906 4.7967825 -1.8982118 113.11
2.1946211 5.1427302 -1.8893305 113.11
2.2300966 5.2258606 -1.7729505 113.11
27.786137 65.112198 4.9503379 113.11
2.2675307 5.3135815 -1.6565806 113.11
2.2387254 5.2460809 -1.4931705 113.11
2.5084708 5.8781843 -1.5143132 113.11
2.9136634 6.8276858 -1.398639 113.11
4.6854172 10.889879 -1.9477159 113.28
5.3509278 12.436664 -1.9027747 113.28
6.2352614 14.492039 -1.8449377 113.28
6.2175527 14.450879 -1.4676926 113.28
7.3033118 16.974407 -1.292169 113.28
1.8132226 4.2143049 -2.0426314 113.28
9.6709185 22.477215 -1.1411077 113.28
1.9255623 4.4754052 -2.0350332 113.28
12.51498 29.087404 -0.73517871 113.28
2.0277832 4.7129874 -2.0034745 113.28
18.61035 43.254303 0 113.28
2.054529 4.7751503 -1.8920554 113.28
18.597433 43.224281 1.0924857 113.28
2.2113681 5.139677 -1.8906109 113.28
27.738354 64.469673 3.2729516 113.28
2.2297463 5.1823916 -1.7604398 113.28
2.2384565 5.2026358 -1.6240553 113.28
2.2451048 5.2180882 -1.4870925 113.28
2.4543693 5.7044625 -1.4714292 113.28
2.4788039 5.7612534 -1.3331298 113.28
3.0496492 7.0880156 -1.4538143 113.28
4.7169223 10.874119 -1.9473916 113.45
5.3901691 12.426184 -1.9036096 113.45
6.2956243 14.513567 -1.8500483 113.45
7.1241789 16.42367 -1.670197 113.45
7.3393521 16.919718 -1.2896577 113.45
1.8228104 4.2022014 -2.0393775 113.45
9.7685738 22.519903 -1.1447412 113.45
1.9403013 4.4730582 -2.0365748 113.45
12.572584 28.984108 -0.73350751 113.45
2.0298958 4.6796041 -1.9918349 113.45
18.629568 42.947525 0 113.45
2.0671923 4.7655849 -1.8906873 113.45
18.603861 42.88826 1.0853832 113.45
2.2198219 5.1174488 -1.8848488 113.45
2.2618277 5.2142868 -1.7735462 113.45
28.291122 65.220718 4.9712648 113.45
2.2600036 5.2100816 -1.6284655 113.45
2.3729901 5.4705539 -1.561042 113.45
2.4929688 5.7471457 -1.4843405 113.45
4.1766067 9.6285067 -1.9774244 113.45
4.7471056 10.850206 -1.9457704 113.63
5.4180665 12.383785 -1.8997128 113.63
6.2958035 14.389982 -1.8368071 113.63
7.1813278 16.413979 -1.6714975 113.63
1.8389324 4.2031498 -2.0426314 113.63
9.796031 22.390266 -1.1397101 113.63
1.9543443 4.4669404 -2.0365748 113.63
12.715672 29.063534 -0.73652494 113.63
2.0326393 4.645895 -1.9801952 113.63
18.64415 42.613941 0 113.63
2.0821536 4.7590675 -1.8906873 113.63
18.621496 42.56216 1.0786057 113.63
2.257153 5.1590543 -1.9027754 113.63
2.233047 5.1039567 -1.738397 113.63
28.295954 64.674553 4.9363866 113.63
2.3033316 5.2646022 -1.6477602 113.63
2.3405311 5.3496275 -1.5286257 113.63
2.4220848 5.5360303 -1.4317731 113.63
2.5398276 5.8051486 -1.3468519 113.63
3.0361688 6.9396095 -1.4271524 113.63
4.7744994 10.825239 -1.943825 113.8
5.4539866 12.365844 -1.8994344 113.8
6.3408766 14.376692 -1.837504 113.8
6.4159493 14.546905 -1.4832984 113.8
1.8513954 4.1976752 -2.0426314 113.8
10.257466 23.256788 -1.1853619 113.8
1.9660999 4.4577451 -2.0350332 113.8
12.754244 28.917742 -0.73378605 113.8
2.0328825 4.6091614 -1.9671006 113.8
18.697868 42.393742 0 113.8
2.0970232 4.7545881 -1.8913714 113.8
18.687988 42.371342 1.0751704 113.8
2.2846842 5.1800728 -1.9130192 113.8
2.2574263 5.1182709 -1.745546 113.8
2.2785988 5.166275 -1.6190938 113.8
2.3649821 5.3621321 -1.5341973 113.8
2.4361439 5.5234776 -1.4303896 113.8
2.5988817 5.8924537 -1.3688905 113.8
2.963949 6.7201715 -1.3838267 113.8
4.7817426 10.755121 -1.9337735 113.97
5.4882393 12.344177 -1.8985994 113.97
6.3956103 14.385042 -1.8409885 113.97
6.4526105 14.513247 -1.4818121 113.97
7.9270544 17.829575 -1.3644366 113.97
1.8638419 4.1921635 -2.0426314 113.97
10.357267 23.295622 -1.1889023 113.97
1.9778181 4.4485192 -2.0334914 113.97
12.829429 28.856022 -0.73318255 113.97
2.0367098 4.5809789 -1.9576434 113.97
18.843884 42.383766 0 113.97
2.1042495 4.7328897 -1.885215 113.97
18.842867 42.381481 1.0768416 113.97
2.2269166 5.0087929 -1.8521969 113.97
2.2834616 5.1359739 -1.7538865 113.97
2.2993846 5.1717887 -1.6229527 113.97
2.4917116 5.6043711 -1.6056142 113.97
2.5948343 5.8363156 -1.513391 113.97
2.6357429 5.9283276 -1.2223741 113.97
4.8217039 10.758896 -1.9370159 114.14
5.5062113 12.28627 -1.8921975 114.14
6.5211282 14.550902 -1.8646833 114.14
6.3962874 14.272339 -1.4591465 114.14
7.1672421 15.992606 -1.2254817 114.14
1.8815026 4.1982861 -2.0483258 114.14
11.898661 26.550045 -1.3567889 114.14
1.9910084 4.4426312 -2.0334914 114.14
12.86838 28.713825 -0.73053652 114.14
2.0358167 4.5426145 -1.9438213 114.14
18.999001 42.393372 0 114.14
2.1190515 4.7283401 -1.8858991 114.14
19.00206 42.400196 1.0787449 114.14
2.2394433 4.9969764 -1.8502762 114.14
2.3057175 5.1448565 -1.7592483 114.14
2.357177 5.2596807 -1.6527216 114.14
2.6056554 5.8141222 -1.667914 114.14
2.5444882 5.6776371 -1.474196 114.14
2.6522036 5.9179878 -1.3784546 114.14
2.6541247 5.9222746 -1.2227445 114.14
4.8562927 10.745494 -1.9373401 114.32
5.515419 12.203939 -1.882177 114.32
6.6592531 14.734895 -1.8909334 114.32
6.5124426 14.410048 -1.4753097 114.32
1.8924253 4.1873593 -2.0458853 114.32
11.839671 26.19758 -1.3406711 114.32
2.0041955 4.4346728 -2.0327206 114.32
12.913234 28.573046 -0.72798336 114.32
2.0362673 4.5056381 -1.9307266 114.32
19.166683 42.410019 0 114.32
2.1323476 4.7182345 -1.884531 114.32
19.159872 42.394951 1.0801375 114.32
2.2761996 5.0365348 -1.8675625 114.32
2.1748357 4.8122478 -1.6478431 114.32
2.4037759 5.3188224 -1.6736701 114.32
2.4071746 5.3263431 -1.5301453 114.32
2.5534961 5.6501079 -1.4691236 114.32
2.6659484 5.8989301 -1.3759595 114.32
4.323132 9.5657711 -1.9777946 114.32
4.8627925 10.675362 -1.9272887 114.49
5.5598145 12.205544 -1.8849605 114.49
6.7210588 14.754842 -1.896044 114.49
6.7838283 14.89264 -1.5267719 114.49
8.0165882 17.598938 -1.352299 114.49
1.9048411 4.181726 -2.0458853 114.49
10.55998 23.182484 -1.1879705 114.49
2.0135195 4.4203095 -2.0288663 114.49
13.011216 28.563719 -0.72872609 114.49
2.0380425 4.4741454 -1.9198145 114.49
19.318962 42.411209 0 114.49
2.1447794 4.7084665 -1.8831629 114.49
19.315414 42.403419 1.0818087 114.49
2.3099837 5.0711422 -1.8829281 114.49
2.3133593 5.0785522 -1.7413758 114.49
2.4546125 5.3886476 -1.6979262 114.49
2.4975576 5.4829254 -1.57725 114.49
2.6154261 5.7416844 -1.4949462 114.49
3.0609562 6.7197628 -1.3912328 114.49
4.9100909 10.694964 -1.9334493 114.66
5.6108789 12.221393 -1.8899707 114.66
6.7697806 14.745667 -1.8974378 114.66
6.5579572 14.284281 -1.466392 114.66
8.1445217 17.740072 -1.3649946 114.66
1.9157155 4.1727352 -2.0442584 114.66
8.787385 19.140331 -0.98216498 114.66
2.023546 4.4076071 -2.0257831 114.66
13.158477 28.661272 -0.73220772 114.66
2.0388718 4.4409895 -1.9081749 114.66
19.475588 42.420952 0 114.66
2.1579561 4.7003741 -1.8824788 114.66
19.468674 42.405888 1.0833406 114.66
2.3242295 5.0625439 -1.8822879 114.66
2.3658569 5.1532154 -1.769376 114.66
2.395189 5.2171054 -1.6461062 114.66
2.5783956 5.616159 -1.6177703 114.66
2.6251426 5.7179813 -1.4907962 114.66
2.9710784 6.4714847 -1.5135971 114.66
4.3740797 9.5274458 -1.9752026 114.66
4.9418015 10.680348 -1.9334493 114.83
5.632977 12.174135 -1.8852388 114.83
6.8160048 14.730925 -1.8981347 114.83
6.8578672 14.821399 -1.5236136 114.83
7.4724169 16.14958 -1.244316 114.83
1.9280877 4.1670327 -2.0442584 114.83
8.9901123 19.429661 -0.99837601 114.83
2.02809 4.3831601 -2.0173037 114.83
12.075536 26.097958 -0.66763526 114.83
2.0418692 4.41294 -1.8987176 114.83
19.622364 42.408356 0 114.83
2.2089856 4.774116 -1.9146287 114.83
19.622955 42.409634 1.084919 114.83
