# .PCD v0.7 - Point Cloud Data file format
VERSION 0.7
FIELDS x y z intensity
SIZE 4 4 4 4
TYPE F F F F
COUNT 1 1 1 1
WIDTH 1131
HEIGHT 1
VIEWPOINT 0 0 0 1 0 0 0
POINTS 1131
DATA ascii
0.0026018054 -7.4536228 -2.1372921 269.98001
0.0028548015 -8.1784029 -2.1409879 269.98001
0.0031771928 -9.1019869 -2.1566513 269.98001
0.0035475399 -10.162953 -2.1602025 269.98001
0.0040162005 -11.505567 -2.1677606 269.98001
-0.037233409 -13.333198 -2.1905725 270.16
-0.043891579 -15.717473 -2.2089555 270.16
-0.053819366 -19.272591 -2.2537882 270.16
-0.068032019 -24.36211 -2.2728798 270.16
-0.094669931 -33.901085 -2.370604 270.16
-0.014115562 -5.05475 -2.111347 270.16
-0.015139204 -5.4213142 -2.116961 270.16
-0.016248511 -5.8185539 -2.1177888 270.16
-0.017571909 -6.2924604 -2.1262171 270.16
-0.019022839 -6.8120346 -2.1256342 270.16
-0.020819785 -7.4555168 -2.1378434 270.16
-0.022843786 -8.1803064 -2.1414943 270.16
-0.025401207 -9.0961132 -2.155268 270.16
-0.028369358 -10.159001 -2.1593709 270.16
-0.032129563 -11.505523 -2.1677606 270.16
-0.072160825 -13.337001 -2.191221 270.31
-0.085007489 -15.711363 -2.2081203 270.31
-0.10421016 -19.260466 -2.2523944 270.31
-0.13175771 -24.351892 -2.271951 270.31
-0.18395127 -33.998482 -2.3774402 270.31
-0.027338818 -5.0528502 -2.1105762 270.31
-0.029332103 -5.4212561 -2.116961 270.31
-0.031481378 -5.8184915 -2.1177888 270.31
-0.034055706 -6.2942872 -2.1268573 270.31
-0.036825627 -6.8062339 -2.123847 270.31
-0.040327787 -7.4535141 -2.1372921 270.31
-0.044291079 -8.1860228 -2.1430137 270.31
-0.049214661 -9.0960159 -2.155268 270.31
-0.054976016 -10.160849 -2.1597867 270.31
-0.062208269 -11.497538 -2.1662796 270.31
-0.1163703 -13.334715 -2.1908967 270.5
-0.13714235 -15.714956 -2.2086771 270.5
-0.16802759 -19.254055 -2.2516975 270.5
-0.21242388 -24.341364 -2.2710221 270.5
-0.29660624 -33.987709 -2.3767426 270.5
-0.044126734 -5.0564227 -2.1121178 270.5
-0.047228187 -5.4118142 -2.1133237 270.5
-0.050792418 -5.8202343 -2.1184728 270.5
-0.054961197 -6.2979293 -2.1281378 270.5
-0.059445694 -6.8118014 -2.1256342 270.5
-0.064977199 -7.4456496 -2.135087 270.5
-0.071386017 -8.180027 -2.1414943 270.5
-0.079394847 -9.0977488 -2.1557291 270.5
-0.088619091 -10.154741 -2.1585391 270.5
-0.10040374 -11.505129 -2.1677606 270.5
-0.1536528 -13.338284 -2.191545 270.66
-0.18100338 -15.712531 -2.2083988 270.66
-0.22174856 -19.249538 -2.2512329 270.66
-0.28030512 -24.332712 -2.2702789 270.66
-0.3914476 -33.980762 -2.3763239 270.66
-0.058140449 -5.0470529 -2.1082635 270.66
-0.062404998 -5.4172497 -2.1155062 270.66
-0.067023709 -5.8181906 -2.1177888 270.66
-0.072460793 -6.2901726 -2.1255767 270.66
-0.078379609 -6.8039727 -2.1232512 270.66
-0.085769095 -7.4454389 -2.135087 270.66
-0.09425094 -8.1817303 -2.1420007 270.66
-0.10480021 -9.0974913 -2.1557291 270.66
-0.11695356 -10.152498 -2.1581233 270.66
-0.13244113 -11.496943 -2.1662796 270.66
-0.19543971 -13.329844 -2.1902483 270.84
-0.23033574 -15.709905 -2.2081203 270.84
-0.28207597 -19.238815 -2.2500713 270.84
-0.35645515 -24.3118 -2.2684209 270.84
-0.49778971 -33.951435 -2.3743708 270.84
-0.074104145 -5.0542264 -2.111347 270.84
-0.079423457 -5.417027 -2.1155062 270.84
-0.085329287 -5.8198304 -2.1184728 270.84
-0.092110455 -6.2823358 -2.1230159 270.84
-0.099726506 -6.801784 -2.1226554 270.84
-0.10904643 -7.4374437 -2.1328819 270.84
-0.11998246 -8.1833286 -2.1425073 270.84
-0.13335173 -9.095171 -2.155268 270.84
-0.14884795 -10.152081 -2.1581233 270.84
-0.16853032 -11.494505 -2.1659093 270.84
-0.23728049 -13.32719 -2.189924 271.01999
-0.27968863 -15.709104 -2.2081203 271.01999
-0.34265643 -19.245779 -2.2510006 271.01999
-0.43261832 -24.298615 -2.2673063 271.01999
-0.6044842 -33.951698 -2.3745103 271.01999
-0.09001492 -5.0558143 -2.1121178 271.01999
-0.096374802 -5.4130254 -2.1140511 271.01999
-0.10357892 -5.8176546 -2.1177888 271.01999
-0.11198142 -6.2895932 -2.1255767 271.01999
-0.12106042 -6.7995281 -2.1220596 271.01999
-0.13247973 -7.4409089 -2.1339843 271.01999
-0.14555274 -8.1751738 -2.1404812 271.01999
-0.1618897 -9.092762 -2.1548069 271.01999
-0.18074086 -10.151564 -2.1581233 271.01999
-0.20467547 -11.495884 -2.1662796 271.01999
-0.27673998 -13.322481 -2.1892755 271.19
-0.32617378 -15.702264 -2.2072854 271.19
-0.39979947 -19.246662 -2.2512329 271.19
-0.50458771 -24.29125 -2.2667489 271.19
-0.70488662 -33.9338 -2.3733943 271.19
-0.1050154 -5.0555248 -2.1121178 271.19
-0.1125125 -5.416441 -2.1155062 271.19
-0.12080073 -5.8154426 -2.1171048 271.19
-0.1306425 -6.2892332 -2.1255767 271.19
-0.14131378 -6.8029566 -2.1232512 271.19
-0.15467651 -7.4462495 -2.1356382 271.19
-0.16984847 -8.1766396 -2.1409879 271.19
-0.18882731 -9.0902958 -2.1543458 271.19
-0.21077906 -10.147071 -2.1572917 271.19
-0.23870185 -11.491296 -2.1655388 271.19
-0.31579888 -13.301871 -2.186033 271.35999
-0.37280884 -15.703207 -2.2075636 271.35999
-0.45671505 -19.237448 -2.2503037 271.35999
-0.5767535 -24.293629 -2.2671206 271.35999
-0.11992736 -5.0515008 -2.1105762 271.35999
-0.12858288 -5.4160833 -2.1155062 271.35999
-0.13796572 -5.8113012 -2.1157367 271.35999
-0.14939237 -6.2926064 -2.1268573 271.35999
-0.16154321 -6.8044162 -2.123847 271.35999
-0.17681488 -7.4476795 -2.1361895 271.35999
-0.19410826 -8.1760998 -2.1409879 271.35999
-0.21584406 -9.0916405 -2.1548069 271.35999
-0.24083862 -10.144444 -2.1568758 271.35999
-0.27293605 -11.496431 -2.1666498 271.35999
-0.35114205 -13.320727 -2.1892755 271.51001
-0.41386625 -15.700197 -2.2072854 271.51001
-0.50697225 -19.232216 -2.2498391 271.51001
-0.63998467 -24.278101 -2.26582 271.51001
-0.89392358 -33.911385 -2.3721387 271.51001
-0.13300584 -5.0456352 -2.1082635 271.51001
-0.14266352 -5.412003 -2.1140511 271.51001
-0.15322872 -5.8127985 -2.1164207 271.51001
-0.16551635 -6.278935 -2.1223757 271.51001
-0.17930625 -6.8020611 -2.1232512 271.51001
-0.19641356 -7.451035 -2.1372921 271.51001
-0.21551256 -8.1755638 -2.1409879 271.51001
-0.23979901 -9.0968809 -2.1561902 271.51001
-0.26739585 -10.14378 -2.1568758 271.51001
-0.30292907 -11.491748 -2.1659093 271.51001
-0.39472777 -13.299764 -2.186033 271.70001
-0.46598646 -15.700719 -2.2075636 271.70001
-0.57080472 -19.232414 -2.2500713 271.70001
-0.72019488 -24.265892 -2.2648911 271.70001
-0.14979179 -5.0470109 -2.1090343 271.70001
-0.16072012 -5.4152246 -2.1155062 271.70001
-0.17250381 -5.8122587 -2.1164207 271.70001
-0.18673059 -6.2916093 -2.1268573 271.70001
-0.20203163 -6.8071542 -2.1250384 271.70001
-0.22089286 -7.442656 -2.135087 271.70001
-0.24262252 -8.1748037 -2.1409879 271.70001
-0.26967537 -9.0863094 -2.1538846 271.70001
-0.30103236 -10.142837 -2.1568758 271.70001
-0.34109375 -11.492645 -2.1662796 271.70001
-0.43231452 -13.312417 -2.1883028 271.85999
-0.50970066 -15.695397 -2.2070069 271.85999
-0.62412262 -19.218832 -2.2486775 271.85999
-0.78763193 -24.253834 -2.2639623 271.85999
-1.1009289 -33.901302 -2.3718596 271.85999
-0.1638252 -5.0447288 -2.1082635 271.85999
-0.17584163 -5.4147549 -2.1155062 271.85999
-0.188673 -5.809876 -2.1157367 271.85999
-0.20411484 -6.2853818 -2.1249366 271.85999
-0.22073014 -6.7970228 -2.1220596 271.85999
-0.241863 -7.4477744 -2.1367407 271.85999
-0.2652615 -8.168293 -2.1394682 271.85999
-0.29511121 -9.0874662 -2.1543458 271.85999
-0.32916483 -10.136091 -2.1556284 271.85999
-0.3731221 -11.489683 -2.1659093 271.85999
-0.47652829 -13.312882 -2.188627 272.04999
-0.56167483 -15.691641 -2.2067287 272.04999
-0.68785113 -19.216658 -2.2486775 272.04999
-0.86812747 -24.25308 -2.264148 272.04999
-1.2109171 -33.829674 -2.3671162 272.04999
-0.18068525 -5.0478463 -2.1098051 272.04999
-0.19359671 -5.4085565 -2.1133237 272.04999
-0.2081399 -5.8148527 -2.1177888 272.04999
-0.22468568 -6.2770963 -2.1223757 272.04999
-0.24340525 -6.8000693 -2.1232512 272.04999
-0.26655936 -7.4469314 -2.1367407 272.04999
-0.29255471 -8.1731691 -2.1409879 272.04999
-0.32524472 -9.0864372 -2.1543458 272.04999
-0.36291546 -10.138854 -2.15646 272.04999
-0.41122121 -11.488382 -2.1659093 272.04999
-0.5157969 -13.305493 -2.1876543 272.22
-0.60792345 -15.68199 -2.2056153 272.22
-0.74463415 -19.208576 -2.2479806 272.22
-0.9395439 -24.236467 -2.2628474 272.22
-1.3097405 -33.78606 -2.364326 272.22
-0.19559021 -5.0454435 -2.1090343 272.22
-0.20993201 -5.4154048 -2.1162336 272.22
-0.22539197 -5.8142095 -2.1177888 272.22
-0.24367617 -6.2858686 -2.1255767 272.22
-0.26358035 -6.7993174 -2.1232512 272.22
-0.28805789 -7.4307394 -2.1323307 272.22
-0.31665379 -8.1683989 -2.1399748 272.22
-0.35197708 -9.0795984 -2.1529624 272.22
-0.39284483 -10.133822 -2.1556284 272.22
-0.44530606 -11.487112 -2.1659093 272.22
-0.55486131 -13.294045 -2.186033 272.39001
-0.65461528 -15.684074 -2.206172 272.39001
-0.80129242 -19.198343 -2.2470515 272.39001
-1.0101221 -24.20174 -2.2598751 272.39001
-1.4120599 -33.83186 -2.3678138 272.39001
-0.21063642 -5.0466852 -2.1098051 272.39001
-0.22576582 -5.409174 -2.1140511 272.39001
-0.24256368 -5.8116374 -2.1171048 272.39001
-0.26193056 -6.2756524 -2.1223757 272.39001
-0.28383276 -6.8004127 -2.123847 272.39001
-0.31058505 -7.4413767 -2.1356382 272.39001
-0.34104985 -8.1712894 -2.1409879 272.39001
-0.37923983 -9.0862923 -2.1548069 272.39001
-0.42291072 -10.132612 -2.1556284 272.39001
-0.47930503 -11.483776 -2.1655388 272.39001
-0.58983797 -13.296491 -2.1866815 272.54001
-0.69558603 -15.680328 -2.2058938 272.54001
-0.85163879 -19.198164 -2.2472837 272.54001
-1.074361 -24.218906 -2.2617328 272.54001
-0.2236843 -5.042429 -2.1082635 272.54001
-0.23984365 -5.406703 -2.1133237 272.54001
-0.25769439 -5.8091049 -2.1164207 272.54001
-0.27835926 -6.2749453 -2.1223757 272.54001
-0.30138138 -6.7939243 -2.1220596 272.54001
-0.33015066 -7.4424591 -2.1361895 272.54001
-0.36226955 -8.166503 -2.1399748 272.54001
-0.40285388 -9.0813799 -2.1538846 272.54001
-0.44952306 -10.133425 -2.1560442 272.54001
-0.50901943 -11.474628 -2.1640577 272.54001
-0.63392752 -13.294461 -2.1866815 272.73001
-0.74729705 -15.672001 -2.2050586 272.73001
-0.91520292 -19.193251 -2.2470515 272.73001
-1.1545731 -24.213221 -2.2615471 272.73001
-1.6104205 -33.773064 -2.364326 272.73001
-0.24049227 -5.0435028 -2.1090343 272.73001
-0.25794908 -5.4095998 -2.1147785 272.73001
-0.27695665 -5.8082185 -2.1164207 272.73001
-0.29952717 -6.281558 -2.1249366 272.73001
-0.32400012 -6.7947946 -2.1226554 272.73001
-0.35473734 -7.4394031 -2.1356382 272.73001
-0.38925651 -8.1633244 -2.1394682 272.73001
-0.43278122 -9.0761061 -2.1529624 272.73001
-0.48293787 -10.127971 -2.1552126 272.73001
-0.54744232 -11.48073 -2.1655388 272.73001
-0.67124915 -13.296581 -2.18733 272.89001
-0.7909587 -15.667874 -2.2047803 272.89001
-0.9688971 -19.192604 -2.2472837 272.89001
-1.2209797 -24.186037 -2.2593176 272.89001
-1.7053298 -33.780388 -2.3651631 272.89001
-0.25466847 -5.0446548 -2.1098051 272.89001
-0.27305451 -5.4088583 -2.1147785 272.89001
-0.29317516 -5.8074226 -2.1164207 272.89001
-0.31706741 -6.2806973 -2.1249366 272.89001
-0.34297347 -6.7938633 -2.1226554 272.89001
-0.3749291 -7.4268627 -2.1323307 272.89001
-0.41195372 -8.1602726 -2.1389618 272.89001
-0.45812476 -9.0748615 -2.1529624 272.89001
-0.51161313 -10.134398 -2.1568758 272.89001
-0.57930219 -11.475231 -2.1647983 272.89001
-0.71312386 -13.296378 -2.1876543 273.07001
-0.84060109 -15.673223 -2.2058938 273.07001
-1.0291876 -19.189466 -2.2472837 273.07001
-1.2973828 -24.190035 -2.2600608 273.07001
-1.8111249 -33.768887 -2.3647444 273.07001
-0.27041662 -5.0419869 -2.1090343 273.07001
-0.28964645 -5.4005327 -2.1118686 273.07001
-0.31131759 -5.8045959 -2.1157367 273.07001
-0.33628982 -6.2702098 -2.1217353 273.07001
-0.36441755 -6.7946587 -2.1232512 273.07001
-0.39825937 -7.4256482 -2.1323307 273.07001
-0.43758789 -8.1589384 -2.1389618 273.07001
-0.48652774 -9.071435 -2.1525013 273.07001
-0.54376298 -10.1386 -2.1581233 273.07001
-0.61534977 -11.473354 -2.1647983 273.07001
-0.75478023 -13.292101 -2.18733 273.25
-0.88949889 -15.664573 -2.2050586 273.25
-1.0892426 -19.182171 -2.246819 273.25
-1.3724684 -24.169935 -2.2585745 273.25
-1.9160728 -33.743111 -2.3633494 273.25
-0.28646436 -5.0447974 -2.1105762 273.25
-0.30661127 -5.3995957 -2.1118686 273.25
-0.32965824 -5.8054657 -2.1164207 273.25
-0.35641626 -6.2766895 -2.1242964 273.25
-0.38554528 -6.7896681 -2.1220596 273.25
-0.42223969 -7.4358768 -2.1356382 273.25
-0.46343714 -8.1613865 -2.1399748 273.25
-0.51513439 -9.071804 -2.1529624 273.25
-0.5748353 -10.123171 -2.1552126 273.25
-0.65139127 -11.471364 -2.1647983 273.25
-0.79374439 -13.281923 -2.186033 273.42001
-0.93609083 -15.663842 -2.205337 273.42001
-1.1456784 -19.170923 -2.2458899 273.42001
-1.4440571 -24.163769 -2.2583888 273.42001
-2.02249 -33.842831 -2.3707435 273.42001
-0.30110103 -5.0383987 -2.1082635 273.42001
-0.32307538 -5.4061012 -2.1147785 273.42001
-0.34688193 -5.804462 -2.1164207 273.42001
-0.37503797 -6.2756042 -2.1242964 273.42001
-0.40580282 -6.7904 -2.1226554 273.42001
-0.44418582 -7.4326725 -2.135087 273.42001
-0.48741955 -8.1561127 -2.1389618 273.42001
-0.54228085 -9.0741215 -2.1538846 273.42001
-0.60463536 -10.117515 -2.154381 273.42001
-0.68554181 -11.471343 -2.1651685 273.42001
-0.83327264 -13.28148 -2.1863573 273.59
-0.98206609 -15.653089 -2.2042236 273.59
-1.2029277 -19.173388 -2.2465868 273.59
-1.5167435 -24.175278 -2.2598751 273.59
-2.115649 -33.721191 -2.3626518 273.59
-0.31616446 -5.0393252 -2.1090343 273.59
-0.33899751 -5.4032593 -2.1140511 273.59
-0.36410257 -5.8034072 -2.1164207 273.59
-0.39353773 -6.2725725 -2.123656 273.59
-0.42582896 -6.7872605 -2.1220596 273.59
-0.46611664 -7.4294028 -2.1345358 273.59
-0.51173818 -8.1565619 -2.1394682 273.59
-0.56895816 -9.0685873 -2.1529624 273.59
-0.63563186 -10.131296 -2.1577075 273.59
-0.71920574 -11.463374 -2.1640577 273.59
-0.8729347 -13.282887 -2.1870058 273.76001
-1.0285053 -15.650106 -2.2042236 273.76001
-1.2590293 -19.157841 -2.245193 273.76001
-1.5874215 -24.154774 -2.2583888 273.76001
-2.2156923 -33.714767 -2.3626518 273.76001
-0.33123606 -5.0402064 -2.1098051 273.76001
-0.35514995 -5.404089 -2.1147785 273.76001
-0.38144323 -5.8041768 -2.1171048 273.76001
-0.41152582 -6.2619243 -2.120455 273.76001
-0.44584009 -6.7840624 -2.121464 273.76001
-0.4877798 -7.4222322 -2.1328819 273.76001
-0.53593689 -8.1550074 -2.1394682 273.76001
-0.59573501 -9.0649176 -2.1525013 273.76001
-0.66491944 -10.117653 -2.1552126 273.76001
-0.75360167 -11.467073 -2.1651685 273.76001
-0.91207141 -13.2763 -2.1863573 273.92999
-1.0749356 -15.646985 -2.2042236 273.92999
-1.3158661 -19.15402 -2.245193 273.92999
-1.6588101 -24.145985 -2.2580171 273.92999
-2.318861 -33.753822 -2.3658605 273.92999
-0.34606269 -5.0373602 -2.1090343 273.92999
-0.37118262 -5.4030113 -2.1147785 273.92999
-0.39866287 -5.8030195 -2.1171048 273.92999
-0.43075278 -6.2701268 -2.123656 273.92999
-0.46675193 -6.794138 -2.1250384 273.92999
-0.50953627 -7.4169164 -2.1317792 273.92999
-0.56013089 -8.1533813 -2.1394682 273.92999
-0.6228953 -9.0669937 -2.1534235 273.92999
-0.69587475 -10.129297 -2.1581233 273.92999
-0.78667885 -11.451061 -2.1625764 273.92999
-0.95004785 -13.253851 -2.1831148 274.10001
-1.1213564 -15.643727 -2.2042236 274.10001
-1.3724073 -19.146069 -2.2447283 274.10001
-1.7305876 -24.142942 -2.258203 274.10001
-0.36113924 -5.0381522 -2.1098051 274.10001
-0.38707882 -5.4000278 -2.1140511 274.10001
-0.41574463 -5.7999368 -2.1164207 274.10001
-0.44949016 -6.2707114 -2.1242964 274.10001
-0.48636243 -6.7851057 -2.1226554 274.10001
-0.53181535 -7.4192071 -2.1328819 274.10001
-0.58445829 -8.153614 -2.1399748 274.10001
-0.6496557 -9.0631638 -2.1529624 274.10001
-0.72508663 -10.11548 -2.1556284 274.10001
-0.82121342 -11.456518 -2.1640577 274.10001
-0.98720247 -13.253115 -2.183439 274.26001
-1.1647432 -15.636584 -2.2036669 274.26001
-1.426163 -19.146124 -2.245193 274.26001
-1.7969651 -24.124115 -2.2569025 274.26001
-2.5115993 -33.718021 -2.364326 274.26001
-0.37506989 -5.0352836 -2.1090343 274.26001
-0.40160346 -5.3914948 -2.1111412 274.26001
-0.43166023 -5.7950044 -2.1150525 274.26001
-0.46573281 -6.2524257 -2.1185343 274.26001
-0.50459898 -6.7742014 -2.1196766 274.26001
-0.55224597 -7.4138584 -2.1317792 274.26001
-0.606794 -8.1461611 -2.1384552 274.26001
-0.67496222 -9.0613146 -2.1529624 274.26001
-0.75304091 -10.109514 -2.1547968 274.26001
-0.85349482 -11.4581 -2.1647983 274.26001
-1.0311459 -13.249768 -2.183439 274.45001
-1.2168969 -15.636585 -2.2042236 274.45001
-1.489646 -19.141289 -2.245193 274.45001
-1.8771082 -24.120008 -2.2570882 274.45001
-2.6263399 -33.747303 -2.3669767 274.45001
-0.39176545 -5.0340123 -2.1090343 274.45001
-0.4197692 -5.3938479 -2.1125963 274.45001
-0.45102063 -5.7954149 -2.1157367 274.45001
-0.48764014 -6.2659593 -2.123656 274.45001
-0.52780098 -6.7820082 -2.1226554 274.45001
-0.57772321 -7.4234867 -2.135087 274.45001
-0.63380432 -8.144104 -2.1384552 274.45001
-0.70515794 -9.0609665 -2.1534235 274.45001
-0.78671288 -10.108912 -2.1552126 274.45001
-0.89102906 -11.449328 -2.1636875 274.45001
-1.0707722 -13.250585 -2.1840875 274.62
-1.2632861 -15.632906 -2.2042236 274.62
-1.5469127 -19.142725 -2.2458899 274.62
-1.9497882 -24.128227 -2.2583888 274.62
-0.40625396 -5.0273089 -2.1067219 274.62
-0.43592125 -5.3944354 -2.1133237 274.62
-0.46821395 -5.7940512 -2.1157367 274.62
-0.50516111 -6.251265 -2.1191745 274.62
-0.54761368 -6.7766066 -2.121464 274.62
-0.59897226 -7.4121585 -2.1323307 274.62
-0.65827721 -8.1460447 -2.1394682 274.62
-0.73172569 -9.0549555 -2.1525013 274.62
-0.81749099 -10.116282 -2.1572917 274.62
-0.92562914 -11.454471 -2.1651685 274.62
-1.1120645 -13.243222 -2.183439 274.79999
-1.3115634 -15.618992 -2.2028317 274.79999
-1.6062124 -19.127874 -2.2447283 274.79999
-2.0237465 -24.100155 -2.256345 274.79999
-0.42266339 -5.0333638 -2.1098051 274.79999
-0.45224261 -5.3856134 -2.1104138 274.79999
-0.4862569 -5.790679 -2.1150525 274.79999
-0.52463895 -6.2477589 -2.1185343 274.79999
-0.56874049 -6.7729502 -2.1208682 274.79999
-0.62177265 -7.4044929 -2.1306767 274.79999
-0.6837036 -8.1420088 -2.1389618 274.79999
-0.76016903 -9.0526114 -2.1525013 274.79999
-0.84795856 -10.098069 -2.1539652 274.79999
-0.96111643 -11.44563 -2.1640577 274.79999
-1.1470718 -13.244198 -2.1840875 274.95001
-1.352962 -15.621425 -2.2036669 274.95001
-1.6550837 -19.109749 -2.2431023 274.95001
-2.0876927 -24.104694 -2.2572739 274.95001
-2.9339926 -33.876148 -2.3777192 274.95001
-0.43504304 -5.0230474 -2.1059511 274.95001
-0.4668228 -5.3899794 -2.1125963 274.95001
-0.50157732 -5.7912583 -2.1157367 274.95001
-0.54197472 -6.25769 -2.1223757 274.95001
-0.58630532 -6.769536 -2.1202724 274.95001
-0.64098954 -7.4009242 -2.1301255 274.95001
-0.70485002 -8.1382637 -2.1384552 274.95001
-0.78353024 -9.0467129 -2.1515791 274.95001
-0.87557393 -10.109458 -2.1568758 274.95001
-0.99073851 -11.439158 -2.163317 274.95001
-1.188321 -13.236597 -2.183439 275.13
-1.4018543 -15.615125 -2.2033885 275.13
-1.7156433 -19.110392 -2.2437992 275.13
-2.1630533 -24.094049 -2.2569025 275.13
-0.4516463 -5.0308461 -2.1098051 275.13
-0.48375359 -5.3884864 -2.1125963 275.13
-0.51943254 -5.7859106 -2.1143684 275.13
-0.56078398 -6.2465205 -2.1191745 275.13
-0.60774022 -6.7695622 -2.1208682 275.13
-0.66509652 -7.4084482 -2.1328819 275.13
-0.73041362 -8.1360092 -2.1384552 275.13
-0.81246948 -9.0500212 -2.1529624 275.13
-0.9062798 -10.094966 -2.154381 275.13
-1.0266707 -11.435989 -2.163317 275.13
-1.2274072 -13.231049 -2.1831148 275.29999
-1.4487278 -15.616813 -2.2042236 275.29999
-1.7732549 -19.115107 -2.2449608 275.29999
-2.2367394 -24.111319 -2.2591319 275.29999
-3.1357141 -33.801971 -2.3738129 275.29999
-0.46623018 -5.0258088 -2.1082635 275.29999
-0.49973941 -5.3870273 -2.1125963 275.29999
-0.53677094 -5.7862153 -2.1150525 275.29999
-0.5793153 -6.2448292 -2.1191745 275.29999
-0.62764686 -6.7658281 -2.1202724 275.29999
-0.68654209 -7.4006991 -2.131228 275.29999
-0.75472909 -8.1357327 -2.1389618 275.29999
-0.83949757 -9.049509 -2.1534235 275.29999
-0.93622816 -10.092233 -2.154381 275.29999
-1.0605974 -11.432893 -2.163317 275.29999
-1.2679759 -13.2411 -2.1853845 275.47
-1.4948686 -15.610474 -2.2039452 275.47
-1.8292052 -19.101852 -2.2440314 275.47
-2.3088386 -24.110523 -2.2596891 275.47
-3.237514 -33.808407 -2.374929 275.47
-0.48149183 -5.0280776 -2.1098051 275.47
-0.51518804 -5.3799572 -2.1104138 275.47
-0.55411577 -5.786468 -2.1157367 275.47
-0.5978415 -6.243083 -2.1191745 275.47
-0.64771873 -6.763936 -2.1202724 275.47
-0.7090472 -7.4043713 -2.1328819 275.47
-0.77923381 -8.1373091 -2.1399748 275.47
-0.86615872 -9.0450411 -2.1529624 275.47
-0.96616822 -10.089411 -2.154381 275.47
-1.0948895 -11.433609 -2.1640577 275.47
-1.3064816 -13.229424 -2.1840875 275.64001
-1.540206 -15.596115 -2.2025535 275.64001
-1.8870447 -19.108202 -2.2454252 275.64001
-2.3795829 -24.09564 -2.2589462 275.64001
-3.3431053 -33.852261 -2.3786957 275.64001
-0.49640828 -5.0266266 -2.1098051 275.64001
-0.5318808 -5.3858209 -2.1133237 275.64001
-0.57128209 -5.7847981 -2.1157367 275.64001
-0.61766595 -6.2544808 -2.123656 275.64001
-0.66797245 -6.7638845 -2.1208682 275.64001
-0.7304464 -7.3964949 -2.131228 275.64001
-0.80261362 -8.1272593 -2.1379488 275.64001
-0.89280081 -9.0404949 -2.1525013 275.64001
-0.99648434 -10.090393 -2.1552126 275.64001
-1.1288089 -11.43031 -2.1640577 275.64001
-1.3468359 -13.213473 -2.182142 275.82001
-1.589195 -15.591199 -2.2025535 275.82001
-1.9466627 -19.098227 -2.2449608 275.82001
-2.4578948 -24.1138 -2.2613614 275.82001
-3.4478199 -33.82571 -2.3775797 275.82001
-0.51219743 -5.0250425 -2.1098051 275.82001
-0.54917598 -5.3878303 -2.1147785 275.82001
-0.58926213 -5.7811055 -2.1150525 275.82001
-0.63596696 -6.2393146 -2.1191745 275.82001
-0.68902493 -6.7598529 -2.1202724 275.82001
-0.75328964 -7.3903384 -2.1301255 275.82001
-0.82833833 -8.1266232 -2.1384552 275.82001
-0.92100054 -9.0357094 -2.1520402 275.82001
-1.0281793 -10.087213 -2.1552126 275.82001
-1.1647125 -11.426707 -2.1640577 275.82001
-1.3880945 -13.229047 -2.1853845 275.98999
-1.635448 -15.586415 -2.2025535 275.98999
-2.0033195 -19.092365 -2.2449608 275.98999
-2.5283921 -24.096498 -2.2604322 275.98999
-3.5452528 -33.787552 -2.3756266 275.98999
-0.52652699 -5.0179944 -2.1074927 275.98999
-0.56457633 -5.3806186 -2.1125963 275.98999
-0.60680467 -5.7830696 -2.1164207 275.98999
-0.65447652 -6.2374001 -2.1191745 275.98999
-0.70967644 -6.7634754 -2.1220596 275.98999
-0.77601635 -7.3957191 -2.1323307 275.98999
-0.85244685 -8.1241293 -2.1384552 275.98999
-0.94800907 -9.0348721 -2.1525013 275.98999
-1.0579 -10.082172 -2.1547968 275.98999
-1.198406 -11.421247 -2.1636875 275.98999
-1.4281631 -13.210886 -2.1831148 276.17001
-1.6844059 -15.581201 -2.2025535 276.17001
-2.0628631 -19.082029 -2.2444961 276.17001
-2.6060071 -24.106255 -2.2621045 276.17001
-3.6432333 -33.700874 -2.3703251 276.17001
-0.54268557 -5.0199852 -2.1090343 276.17001
-0.58167744 -5.3806705 -2.1133237 276.17001
-0.62416172 -5.7736607 -2.1136844 276.17001
-0.67406863 -6.2353134 -2.1191745 276.17001
-0.73030537 -6.755518 -2.1202724 276.17001
-0.79842031 -7.3855991 -2.1301255 276.17001
-0.87817323 -8.1233349 -2.1389618 276.17001
-0.97680652 -9.0357189 -2.1534235 276.17001
-1.0891482 -10.074909 -2.1539652 276.17001
-1.2347034 -11.421333 -2.164428 276.17001
-1.4675722 -13.208552 -2.183439 276.34
-1.731285 -15.58204 -2.2033885 276.34
-2.121665 -19.095568 -2.246819 276.34
-2.6746614 -24.072687 -2.2596891 276.34
-3.7564287 -33.808891 -2.3786957 276.34
-0.55798537 -5.0220213 -2.1105762 276.34
-0.59722817 -5.3752174 -2.1118686 276.34
-0.64191234 -5.7773871 -2.1157367 276.34
-0.69298464 -6.237052 -2.120455 276.34
-0.75097865 -6.7590141 -2.1220596 276.34
-0.8220287 -7.3984838 -2.1345358 276.34
-0.90205812 -8.1187706 -2.1384552 276.34
-1.0033969 -9.0308466 -2.1529624 276.34
-1.1196843 -10.077466 -2.1552126 276.34
-1.2679347 -11.411759 -2.163317 276.34
-1.5031111 -13.192637 -2.1814938 276.5
-1.7747914 -15.577144 -2.2033885 276.5
-2.1754313 -19.093515 -2.2472837 276.5
-2.7454815 -24.096781 -2.2626617 276.5
-3.8503745 -33.794304 -2.3784168 276.5
-0.5720073 -5.0204434 -2.1105762 276.5
-0.61265808 -5.3772311 -2.1133237 276.5
-0.6578306 -5.773705 -2.1150525 276.5
-0.70997006 -6.2313275 -2.1191745 276.5
-0.76898593 -6.7493029 -2.1196766 276.5
-0.84094483 -7.380878 -2.1301255 276.5
-0.92428839 -8.1123753 -2.1374424 276.5
-1.0288321 -9.0299435 -2.1534235 276.5
-1.1476001 -10.072356 -2.1547968 276.5
-1.3002423 -11.41208 -2.1640577 276.5
-1.5450087 -13.191771 -2.182142 276.67999
-1.822798 -15.563623 -2.202275 276.67999
-2.2349424 -19.08264 -2.246819 276.67999
-2.8179271 -24.060347 -2.2600608 276.67999
-3.9593084 -33.80582 -2.380091 276.67999
-0.58734727 -5.0149555 -2.1090343 276.67999
-0.62911469 -5.3715792 -2.1118686 276.67999
-0.67596591 -5.7716098 -2.1150525 276.67999
-0.72932243 -6.2271843 -2.1185343 276.67999
-0.79085189 -6.7525425 -2.121464 276.67999
-0.86412835 -7.3781996 -2.1301255 276.67999
-0.95044476 -8.1151962 -2.1389618 276.67999
-1.0560634 -9.0170021 -2.1511178 276.67999
-1.1794652 -10.070644 -2.1552126 276.67999
-1.3365451 -11.411843 -2.1647983 276.67999
-1.5834863 -13.201121 -2.1844118 276.84
-1.8674321 -15.568304 -2.2036669 276.84
-2.2891686 -19.084215 -2.2477484 276.84
-2.8891368 -24.085997 -2.2632191 276.84
-4.0513201 -33.774822 -2.3786957 276.84
-0.60156918 -5.0151281 -2.1098051 276.84
-0.64455622 -5.3735008 -2.1133237 276.84
-0.69163299 -5.7659674 -2.1136844 276.84
-0.74738616 -6.2307673 -2.120455 276.84
-0.80902332 -6.7446208 -2.1196766 276.84
-0.88472879 -7.3757577 -2.1301255 276.84
-0.9728725 -8.11059 -2.1384552 276.84
-1.0826302 -9.0256109 -2.1538846 276.84
-1.20735 -10.065369 -2.1547968 276.84
-1.3677056 -11.402212 -2.1636875 276.84
-1.6242274 -13.190205 -2.183439 277.01999
-1.9156059 -15.556464 -2.2028317 277.01999
-2.349112 -19.076929 -2.2477484 277.01999
-2.9621139 -24.055061 -2.2611754 277.01999
-4.17033 -33.866879 -2.38609 277.01999
-0.61687058 -5.0095506 -2.1082635 277.01999
-0.66143441 -5.3714495 -2.1133237 277.01999
-0.70997357 -5.7656317 -2.1143684 277.01999
-0.7664938 -6.2246275 -2.1191745 277.01999
-0.83090812 -6.7477303 -2.121464 277.01999
-0.90930581 -7.3843908 -2.1334331 277.01999
-0.99905723 -8.1132545 -2.1399748 277.01999
-1.1105039 -9.018302 -2.1529624 277.01999
-1.2387263 -10.059585 -2.154381 277.01999
-1.4047209 -11.407612 -2.1655388 277.01999
-1.6686257 -13.208533 -2.18733 277.20001
-1.9657096 -15.560194 -2.2042236 277.20001
-2.4077876 -19.059601 -2.2465868 277.20001
-3.0389183 -24.055513 -2.2621045 277.20001
-0.63283676 -5.0094185 -2.1090343 277.20001
-0.67783898 -5.3656483 -2.1118686 277.20001
-0.72737664 -5.7577791 -2.1123164 277.20001
-0.78557026 -6.2184291 -2.1178939 277.20001
-0.85090619 -6.7356162 -2.1184852 277.20001
-0.93105429 -7.3700533 -2.1301255 277.20001
-1.0238134 -8.1043167 -2.1384552 277.20001
-1.1385863 -9.0128384 -2.1525013 277.20001
-1.2708136 -10.059525 -2.1552126 277.20001
-1.440552 -11.403143 -2.1655388 277.20001
-1.7049987 -13.199907 -2.1866815 277.35999
-2.0076318 -15.542858 -2.2025535 277.35999
-2.4610026 -19.052803 -2.2465868 277.35999
-3.1076124 -24.058784 -2.2632191 277.35999
-4.3635583 -33.782173 -2.3819046 277.35999
-0.64682323 -5.0076318 -2.1090343 277.35999
-0.69282007 -5.3637342 -2.1118686 277.35999
-0.74417478 -5.7613168 -2.1143684 277.35999
-0.80366051 -6.2218485 -2.1198146 277.35999
-0.87093508 -6.742681 -2.121464 277.35999
-0.95335567 -7.3807716 -2.1339843 277.35999
-1.0464408 -8.1014261 -2.1384552 277.35999
-1.1642489 -9.013484 -2.1534235 277.35999
-1.2986494 -10.053997 -2.1547968 277.35999
-1.4728935 -11.402974 -2.1662796 277.35999
-1.7467179 -13.196442 -2.1870058 277.54001
-2.0564511 -15.536474 -2.2025535 277.54001
-2.5231924 -19.0627 -2.2486775 277.54001
-3.1821346 -24.041006 -2.262476 277.54001
-4.4777818 -33.829613 -2.3862295 277.54001
-0.66352057 -5.0128932 -2.1121178 277.54001
-0.70991176 -5.3633785 -2.1125963 277.54001
-0.76177758 -5.7552242 -2.1130004 277.54001
-0.82220852 -6.2117796 -2.1172538 277.54001
-0.89211351 -6.7399116 -2.121464 277.54001
-0.97426784 -7.3605871 -2.1290228 277.54001
-1.0723947 -8.1019344 -2.1394682 277.54001
-1.1930707 -9.0136404 -2.1543458 277.54001
-1.3304852 -10.051807 -2.1552126 277.54001
-1.5081939 -11.394394 -2.1655388 277.54001
-1.7838269 -13.193469 -2.18733 277.70001
-2.1003599 -15.534596 -2.2031102 277.70001
-2.5761495 -19.053612 -2.2484453 277.70001
-3.2508583 -24.043867 -2.2635906 277.70001
-0.67776388 -5.0128498 -2.1128886 277.70001
-0.72413749 -5.3558364 -2.1104138 277.70001
-0.77759439 -5.7512121 -2.1123164 277.70001
-0.84107506 -6.2207255 -2.1210952 277.70001
-0.90990818 -6.729826 -2.119081 277.70001
-0.99507624 -7.3597426 -2.1295743 277.70001
-1.094497 -8.0950737 -2.1384552 277.70001
-1.2174546 -9.004488 -2.1529624 277.70001
-1.3582878 -10.046114 -2.1547968 277.70001
-1.5410603 -11.397928 -2.1670201 277.70001
-1.8270264 -13.183571 -2.1866815 277.89001
-2.1532223 -15.537355 -2.2045019 277.89001
-2.6395919 -19.046932 -2.2486775 277.89001
-3.3308461 -24.034925 -2.2637765 277.89001
-4.6769557 -33.748268 -2.3824625 277.89001
-0.69362336 -5.0050907 -2.1105762 277.89001
-0.74214983 -5.3552508 -2.1111412 277.89001
-0.79717779 -5.7523251 -2.1136844 277.89001
-0.86039865 -6.208518 -2.1178939 277.89001
-0.93169594 -6.7229896 -2.1178894 277.89001
-1.0194765 -7.3564024 -2.1295743 277.89001
-1.1210696 -8.0894833 -2.1379488 277.89001
-1.245972 -8.9907627 -2.1506567 277.89001
-1.3918631 -10.043492 -2.1552126 277.89001
-1.5791186 -11.394702 -2.1673903 277.89001
-1.8635584 -13.176463 -2.1863573 278.04999
-2.1960475 -15.52736 -2.2039452 278.04999
-2.693327 -19.043421 -2.2491422 278.04999
-3.400461 -24.043276 -2.2654486 278.04999
-4.789341 -33.863483 -2.391531 278.04999
-0.70759749 -5.0031343 -2.1105762 278.04999
-0.75762337 -5.3568468 -2.1125963 278.04999
-0.81297499 -5.7482157 -2.1130004 278.04999
-0.87773269 -6.2060909 -2.1178939 278.04999
-0.95100111 -6.7241421 -2.119081 278.04999
-1.0405539 -7.3573341 -2.1306767 278.04999
-1.1439261 -8.0882368 -2.1384552 278.04999
-1.2724367 -8.9968824 -2.1529624 278.04999
-1.4207262 -10.045377 -2.15646 278.04999
-1.6098315 -11.382463 -2.1659093 278.04999
-1.9049442 -13.170544 -2.1863573 278.23001
-2.2445338 -15.518424 -2.2036669 278.23001
-2.7522871 -19.028967 -2.2484453 278.23001
-3.474268 -24.020651 -2.2643337 278.23001
-4.8934178 -33.832474 -2.390415 278.23001
-0.72225505 -4.9935803 -2.1074927 278.23001
-0.77418196 -5.3525963 -2.1118686 278.23001
-0.83129853 -5.7474933 -2.1136844 278.23001
-0.89695412 -6.2014279 -2.1172538 278.23001
-0.97266752 -6.7249007 -2.1202724 278.23001
-1.0633874 -7.3521261 -2.1301255 278.23001
-1.1690536 -8.0826883 -2.1379488 278.23001
-1.3006949 -8.9928408 -2.1529624 278.23001
-1.4514375 -10.035056 -2.1552126 278.23001
-1.6447386 -11.371514 -2.1647983 278.23001
-1.9431486 -13.158977 -2.1853845 278.39999
-2.2905679 -15.511696 -2.2036669 278.39999
-2.8098958 -19.028578 -2.2493744 278.39999
-3.5434868 -23.996447 -2.2630334 278.39999
-4.9990249 -33.853333 -2.392926 278.39999
-0.73787689 -4.9968925 -2.1098051 278.39999
-0.78978783 -5.348433 -2.1111412 278.39999
-0.84779894 -5.7412829 -2.1123164 278.39999
-0.91562694 -6.2006135 -2.1178939 278.39999
-0.99177969 -6.7163186 -2.1184852 278.39999
-1.0854777 -7.3508406 -2.1306767 278.39999
-1.1927475 -8.0772705 -2.1374424 278.39999
-1.326803 -8.9850922 -2.1520402 278.39999
-1.4812057 -10.030705 -2.1552126 278.39999
-1.6793325 -11.372417 -2.1659093 278.39999
-1.9830657 -13.159008 -2.1863573 278.57001
-2.3380575 -15.514624 -2.2050586 278.57001
-2.8660462 -19.018192 -2.2491422 278.57001
-3.617044 -24.001579 -2.2645197 278.57001
-0.75242472 -4.9928565 -2.1090343 278.57001
-0.80565345 -5.346066 -2.1111412 278.57001
-0.86539006 -5.7424593 -2.1136844 278.57001
-0.93430281 -6.1997433 -2.1185343 278.57001
-1.011134 -6.7095709 -2.1172936 278.57001
-1.1072832 -7.3475876 -2.1306767 278.57001
-1.2169963 -8.0756092 -2.1379488 278.57001
-1.3534564 -8.9811153 -2.1520402 278.57001
-1.5109608 -10.026266 -2.1552126 278.57001
-1.7127749 -11.365441 -2.1655388 278.57001
-2.0192058 -13.149517 -2.1857088 278.73001
-2.3813734 -15.508034 -2.2050586 278.73001
-2.9194453 -19.012077 -2.2493744 278.73001
-3.6810324 -23.971703 -2.2626617 278.73001
-5.2190561 -33.987656 -2.4045057 278.73001
-0.76636446 -4.990736 -2.1090343 278.73001
-0.82114488 -5.3474779 -2.1125963 278.73001
-0.88142264 -5.7400203 -2.1136844 278.73001
-0.95103693 -6.1933641 -2.1172538 278.73001
-1.0304462 -6.710495 -2.1184852 278.73001
-1.1272136 -7.3406663 -2.1295743 278.73001
-1.2401302 -8.076004 -2.1389618 278.73001
-1.378531 -8.9773006 -2.1520402 278.73001
-1.5395473 -10.025875 -2.1560442 278.73001
-1.7448047 -11.362556 -2.1659093 278.73001
-2.0605061 -13.143109 -2.1857088 278.91
-2.4297748 -15.498519 -2.2047803 278.91
-2.9803898 -19.010662 -2.2503037 278.91
-3.7566319 -23.961987 -2.2628474 278.91
-5.3057199 -33.842972 -2.3954372 278.91
-0.78232533 -4.9901266 -2.1098051 278.91
-0.83794039 -5.344872 -2.1125963 278.91
-0.89886886 -5.7335095 -2.1123164 278.91
-0.9707827 -6.1922178 -2.1178939 278.91
-1.0509313 -6.7034526 -2.1172936 278.91
-1.150865 -7.3408871 -2.1306767 278.91
-1.2654955 -8.0720682 -2.1389618 278.91
-1.4064258 -8.9710035 -2.1515791 278.91
-1.5734608 -10.03645 -2.1593709 278.91
-1.780797 -11.358961 -2.1662796 278.91
-2.0988705 -13.133039 -2.1850603 279.07999
-2.4766867 -15.497109 -2.2056153 279.07999
-3.0374093 -19.005659 -2.2507682 279.07999
-3.8324258 -23.980232 -2.2656343 279.07999
-5.4290953 -33.970901 -2.4056218 279.07999
-0.79712784 -4.9877834 -2.1098051 279.07999
-0.8535012 -5.3405228 -2.1118686 279.07999
-0.91617316 -5.7326732 -2.1130004 279.07999
-0.98974913 -6.1930523 -2.1191745 279.07999
-1.0711175 -6.7021899 -2.1178894 279.07999
-1.1717305 -7.3317451 -2.1290228 279.07999
-1.2885243 -8.0625458 -2.1374424 279.07999
-1.433037 -8.9667912 -2.1515791 279.07999
-1.6019977 -10.024011 -2.1577075 279.07999
-1.8135613 -11.347805 -2.1651685 279.07999
-2.1410716 -13.132225 -2.186033 279.26001
-2.5253601 -15.489252 -2.2056153 279.26001
-3.0967827 -18.994062 -2.250536 279.26001
-3.9054999 -23.954315 -2.2643337 279.26001
-5.5447803 -34.008812 -2.409528 279.26001
-0.81309044 -4.9870763 -2.1105762 279.26001
-0.86967516 -5.3341374 -2.1104138 279.26001
-0.93417829 -5.7297664 -2.1130004 279.26001
-1.0076758 -6.180562 -2.1159732 279.26001
-1.0933967 -6.7063293 -2.1202724 279.26001
-1.1956861 -7.3337202 -2.1306767 279.26001
-1.3135357 -8.0565481 -2.1369357 279.26001
-1.4621394 -8.9680071 -2.1529624 279.26001
-1.6328515 -10.015066 -2.1568758 279.26001
-1.8514163 -11.35563 -2.1677606 279.26001
-2.1783812 -13.130089 -2.1866815 279.42001
-2.5686042 -15.48214 -2.2056153 279.42001
-3.149812 -18.98534 -2.250536 279.42001
-3.9700961 -23.929565 -2.2630334 279.42001
-5.639729 -33.993195 -2.409528 279.42001
-0.82852405 -4.9938893 -2.1144302 279.42001
-0.88517731 -5.3353639 -2.1118686 279.42001
-0.95048279 -5.7289896 -2.1136844 279.42001
-1.0258616 -6.1833315 -2.1178939 279.42001
-1.1121199 -6.7032499 -2.1202724 279.42001
-1.2164757 -7.3322492 -2.131228 279.42001
-1.3369787 -8.0585747 -2.1384552 279.42001
-1.4868586 -8.9619684 -2.1525013 279.42001
-1.6601721 -10.006608 -2.1560442 279.42001
-1.8827983 -11.348476 -2.1673903 279.42001
-2.2196198 -13.12318 -2.1866815 279.60001
-2.6198723 -15.489615 -2.2078421 279.60001
-3.2094405 -18.975351 -2.250536 279.60001
-4.0419326 -23.897339 -2.2611754 279.60001
-5.7637954 -34.077606 -2.4167829 279.60001
-0.84390092 -4.9894419 -2.1136594 279.60001
-0.90162379 -5.3307199 -2.1111412 279.60001
-0.96878964 -5.727828 -2.1143684 279.60001
-1.044966 -6.1782098 -2.1172538 279.60001
-1.1328549 -6.6978402 -2.1196766 279.60001
-1.239184 -7.3264956 -2.1306767 279.60001
-1.3626115 -8.0562429 -2.1389618 279.60001
-1.5159796 -8.9630098 -2.1538846 279.60001
-1.6916006 -10.001343 -2.1560442 279.60001
-1.9177858 -11.33863 -2.1666498 279.60001
-2.2582123 -13.114592 -2.1863573 279.76999
-2.6658194 -15.481774 -2.2078421 279.76999
-3.2664013 -18.96966 -2.2510006 279.76999
-4.1165366 -23.906828 -2.2632191 279.76999
-5.8801155 -34.14883 -2.4230609 279.76999
-0.85744852 -4.9796414 -2.1105762 279.76999
-0.91775244 -5.3298573 -2.1118686 279.76999
-0.98386663 -5.7138157 -2.1102643 279.76999
-1.0639355 -6.1788168 -2.1185343 279.76999
-1.1523988 -6.6925683 -2.119081 279.76999
-1.2602642 -7.3189974 -2.1295743 279.76999
-1.3858521 -8.0483513 -2.1379488 279.76999
-1.541576 -8.9527187 -2.1525013 279.76999
-1.7215996 -9.998208 -2.15646 279.76999
-1.951086 -11.330953 -2.1662796 279.76999
-2.3000839 -13.11132 -2.1870058 279.95001
-2.7141013 -15.471373 -2.2075636 279.95001
-3.3259802 -18.959305 -2.2510006 279.95001
-4.1902452 -23.885933 -2.262476 279.95001
-6.0018468 -34.212727 -2.4289205 279.95001
-0.93481404 -5.3287826 -2.1125963 279.95001
-1.0027864 -5.7162499 -2.1123164 279.95001
-1.0833416 -6.1754441 -2.1185343 279.95001
-1.1727586 -6.685154 -2.1178894 279.95001
-1.282919 -7.3131084 -2.1290228 279.95001
-1.4114642 -8.0458632 -2.1384552 279.95001
-1.5696942 -8.9478321 -2.1525013 279.95001
-1.7523253 -9.9888964 -2.1556284 279.95001
-1.9870132 -11.326703 -2.1666498 279.95001
-2.3389757 -13.104438 -2.1870058 280.12
-2.7610378 -15.4691 -2.2083988 280.12
-3.383266 -18.955219 -2.2516975 280.12
-4.2589984 -23.861633 -2.2613614 280.12
-6.1103425 -34.234047 -2.4317107 280.12
-0.94996601 -5.3223176 -2.1111412 280.12
-1.0194123 -5.7113996 -2.1116323 280.12
-1.100328 -6.1647415 -2.1159732 280.12
-1.1929241 -6.6835241 -2.1184852 280.12
-1.3049496 -7.3111625 -2.1295743 280.12
-1.4346507 -8.0378304 -2.1374424 280.12
-1.5969199 -8.9469671 -2.1534235 280.12
-1.7833302 -9.9913559 -2.1572917 280.12
-2.0202661 -11.318823 -2.1662796 280.12
-2.3762655 -13.101739 -2.1876543 280.28
-2.8031647 -15.455483 -2.2075636 280.28
-3.4361856 -18.945698 -2.2516975 280.28
-4.3298802 -23.873159 -2.2635906 280.28
-0.96382761 -5.3141446 -2.1089587 280.28
-1.0356928 -5.7103796 -2.1123164 280.28
-1.1185533 -6.1672378 -2.1178939 280.28
-1.2115834 -6.6801667 -2.1184852 280.28
-1.3257042 -7.3093815 -2.1301255 280.28
-1.4581267 -8.0395041 -2.1389618 280.28
-1.6218983 -8.9424725 -2.1534235 280.28
-1.8112243 -9.9863377 -2.1572917 280.28
-2.0529187 -11.318939 -2.1673903 280.28
-2.418982 -13.089906 -2.1870058 280.47
-2.8544014 -15.446103 -2.2075636 280.47
-3.498632 -18.932245 -2.2514651 280.47
-4.4046803 -23.835171 -2.2613614 280.47
-0.98347592 -5.3219113 -2.1133237 280.47
-1.0553066 -5.7106099 -2.1136844 280.47
-1.1389984 -6.1634946 -2.1178939 280.47
-1.233382 -6.6742349 -2.1178894 280.47
-1.3509837 -7.3106165 -2.1317792 280.47
-1.4847786 -8.0346241 -2.1389618 280.47
-1.6518973 -8.9389582 -2.1538846 280.47
-1.8439747 -9.9783525 -2.1568758 280.47
-2.0897279 -11.308204 -2.1666498 280.47
-2.4558904 -13.085039 -2.18733 280.63
-2.8964279 -15.432232 -2.2067287 280.63
-3.551487 -18.922401 -2.2514651 280.63
-4.4704885 -23.818863 -2.2609897 280.63
-0.99730271 -5.3136511 -2.1111412 280.63
-1.0715961 -5.7094879 -2.1143684 280.63
-1.1558561 -6.1584277 -2.1172538 280.63
-1.2537761 -6.6801472 -2.1208682 280.63
-1.3696203 -7.297368 -2.1290228 280.63
-1.5068529 -8.0285454 -2.1384552 280.63
-1.6761352 -8.9304857 -2.1529624 280.63
-1.8725541 -9.9770098 -2.1577075 280.63
-2.1220233 -11.306188 -2.1673903 280.63
-2.4977264 -13.081137 -2.1879785 280.81
-2.947124 -15.434729 -2.2083988 280.81
-3.6112885 -18.913103 -2.2516975 280.81
-4.5508981 -23.834042 -2.2637765 280.81
-1.0125934 -5.3031716 -2.1082313 280.81
-1.0891752 -5.704247 -2.1136844 280.81
-1.1755531 -6.1566272 -2.1178939 280.81
-1.2729658 -6.6667986 -2.1178894 280.81
-1.3928995 -7.2949176 -2.1295743 280.81
-1.5320678 -8.0237722 -2.1384552 280.81
-1.7034527 -8.9213524 -2.1520402 280.81
-1.9035215 -9.9691563 -2.1572917 280.81
-2.156795 -11.295604 -2.1666498 280.81
-2.5338705 -13.072173 -2.1876543 280.97
-2.9905913 -15.428383 -2.2086771 280.97
-3.6640897 -18.902945 -2.2516975 280.97
-4.6128898 -23.797781 -2.2615471 280.97
-1.0291713 -5.3094683 -2.1118686 280.97
-1.1051002 -5.7011833 -2.1136844 280.97
-1.192741 -6.1533203 -2.1178939 280.97
-1.2933946 -6.6725893 -2.1208682 280.97
-1.4139971 -7.2947741 -2.1306767 280.97
-1.5548365 -8.0213614 -2.1389618 280.97
-1.7283592 -8.9165602 -2.1520402 280.97
-1.9309809 -9.9618807 -2.1568758 280.97
-2.1883297 -11.289537 -2.1666498 280.97
-2.5734079 -13.06847 -2.1883028 281.14001
-3.035207 -15.413612 -2.2078421 281.14001
-3.7197759 -18.890041 -2.2514651 281.14001
-4.6827097 -23.780081 -2.2611754 281.14001
-6.7835484 -34.448719 -2.4551489 281.14001
-1.0438404 -5.3009076 -2.1096864 281.14001
-1.1205586 -5.6905036 -2.1109483 281.14001
-1.210627 -6.1478953 -2.1172538 281.14001
-1.3109736 -6.6574831 -2.1172936 281.14001
-1.437492 -7.2999783 -2.1334331 281.14001
-1.579751 -8.0224085 -2.1404812 281.14001
-1.7551836 -8.9133024 -2.1525013 281.14001
-1.9609079 -9.9580269 -2.1572917 281.14001
-2.2225764 -11.286851 -2.1673903 281.14001
-2.6098919 -13.061233 -2.1883028 281.29999
-3.0786262 -15.407019 -2.2081203 281.29999
-3.7744584 -18.889318 -2.2526267 281.29999
-4.7557311 -23.80011 -2.2643337 281.29999
-6.8992677 -34.527462 -2.4621246 281.29999
-1.0597343 -5.3034525 -2.1118686 281.29999
-1.1371816 -5.6910381 -2.1123164 281.29999
-1.2274191 -6.1426325 -2.1166136 281.29999
-1.3303078 -6.6575403 -2.1184852 281.29999
-1.4548581 -7.2808533 -2.1290228 281.29999
-1.6021476 -8.0179653 -2.1404812 281.29999
-1.7812113 -8.9140921 -2.1538846 281.29999
-1.9890916 -9.9544306 -2.1577075 281.29999
-2.2552419 -11.286383 -2.1685014 281.29999
-2.6531901 -13.052506 -2.1883028 281.48999
-3.1293061 -15.394784 -2.2078421 281.48999
-3.8366811 -18.874752 -2.2523944 281.48999
-4.8350258 -23.78616 -2.2645197 281.48999
-1.0765733 -5.296258 -2.1104138 281.48999
-1.1556731 -5.6853938 -2.1116323 281.48999
-1.2481595 -6.1403852 -2.1172538 281.48999
-1.3519975 -6.6512213 -2.1178894 281.48999
-1.4797602 -7.279757 -2.1301255 281.48999
-1.6271857 -8.005024 -2.1384552 281.48999
-1.811537 -8.9119501 -2.1548069 281.48999
-2.0217011 -9.9458628 -2.1572917 281.48999
-2.2922649 -11.276916 -2.1681311 281.48999
-2.688035 -13.037314 -2.1870058 281.64999
-3.1718843 -15.384046 -2.2075636 281.64999
-3.8905778 -18.869801 -2.2530913 281.64999
-4.8953981 -23.743309 -2.2617328 281.64999
-1.0902303 -5.2877569 -2.1082313 281.64999
-1.1730633 -5.689507 -2.1143684 281.64999
-1.2656844 -6.1387315 -2.1178939 281.64999
-1.3709514 -6.6492901 -2.1184852 281.64999
-1.5004715 -7.2774792 -2.1306767 281.64999
-1.6499243 -8.0023441 -2.1389618 281.64999
-1.8348448 -8.8992329 -2.1529624 281.64999
-2.0498621 -9.9420948 -2.1577075 281.64999
-2.3241439 -11.272395 -2.1685014 281.64999
-2.7328732 -13.036056 -2.1883028 281.84
-3.2249141 -15.383135 -2.2089555 281.84
-3.9506855 -18.845131 -2.2516975 281.84
-4.9790101 -23.750334 -2.2639623 281.84
-7.265306 -34.656174 -2.4760759 281.84
-1.1085237 -5.2877593 -2.1096864 281.84
-1.1903814 -5.6782284 -2.1116323 281.84
-1.2860342 -6.1345005 -2.1178939 281.84
-1.3933854 -6.6465759 -2.119081 281.84
-1.526963 -7.2837529 -2.1339843 281.84
-1.6764519 -7.9968286 -2.1389618 281.84
-1.8639463 -8.8911943 -2.1525013 281.84
-2.0824187 -9.9333277 -2.1572917 281.84
-2.3607051 -11.260779 -2.1677606 281.84
-2.7707186 -13.024029 -2.1876543 282.01001
-3.2709546 -15.375436 -2.2092338 282.01001
-4.0082359 -18.841097 -2.2526267 282.01001
-5.0627165 -23.797785 -2.2699072 282.01001
-1.1242079 -5.2844472 -2.1096864 282.01001
-1.2076149 -5.6765099 -2.1123164 282.01001
-1.3034414 -6.1269512 -2.1166136 282.01001
-1.4134973 -6.6442795 -2.1196766 282.01001
-1.5461674 -7.2679076 -2.1306767 282.01001
-1.6997689 -7.9899268 -2.1384552 282.01001
-1.8911288 -8.889432 -2.1534235 282.01001
-2.1114752 -9.9251919 -2.1568758 282.01001
-2.3949242 -11.25757 -2.1685014 282.01001
-2.8105986 -13.021538 -2.188627 282.17999
-3.3153064 -15.359855 -2.2083988 282.17999
-4.0666356 -18.840773 -2.2540205 282.17999
-5.1282616 -23.7593 -2.267678 282.17999
-1.1406683 -5.2847304 -2.1111412 282.17999
-1.2240556 -5.6710644 -2.1116323 282.17999
-1.3220145 -6.1249089 -2.1172538 282.17999
-1.4336078 -6.641923 -2.1202724 282.17999
-1.5677248 -7.263288 -2.1306767 282.17999
-1.7230598 -7.9829569 -2.1379488 282.17999
-1.9162641 -8.8780746 -2.1520402 282.17999
-2.1413274 -9.9207954 -2.1572917 282.17999
-2.4274859 -11.246572 -2.1677606 282.17999
-2.8487997 -13.011213 -2.1883028 282.35001
-3.3591709 -15.342212 -2.2072854 282.35001
-4.1199698 -18.81698 -2.2526267 282.35001
-5.2055492 -23.775103 -2.2706504 282.35001
-1.1559449 -5.2795029 -2.1104138 282.35001
-1.2408766 -5.6674075 -2.1116323 282.35001
-1.3401816 -6.1209598 -2.1172538 282.35001
-1.4524918 -6.6339097 -2.119081 282.35001
-1.5896797 -7.2604828 -2.131228 282.35001
-1.7475657 -7.9815898 -2.1389618 282.35001
-1.9442623 -8.8799543 -2.1538846 282.35001
-2.1715903 -9.9182205 -2.1581233 282.35001
-2.4625261 -11.247 -2.1692419 282.35001
-2.8851228 -13.003207 -2.1883028 282.51001
-3.4050043 -15.346306 -2.2092338 282.51001
-4.1720705 -18.803463 -2.2523944 282.51001
-5.2831364 -23.81102 -2.2754807 282.51001
-1.1706835 -5.2762542 -2.1104138 282.51001
-1.256291 -5.6620855 -2.1109483 282.51001
-1.3564484 -6.1134934 -2.1159732 282.51001
-1.4718386 -6.6335554 -2.1202724 282.51001
-1.6091157 -7.2522616 -2.1301255 282.51001
-1.7706859 -7.9804559 -2.1399748 282.51001
-1.9698954 -8.8782902 -2.1548069 282.51001
-2.2001262 -9.9159374 -2.1589551 282.51001
-2.4939239 -11.24008 -2.1692419 282.51001
-2.9290948 -12.997419 -2.1889513 282.70001
-3.4558759 -15.33493 -2.2092338 282.70001
-4.2344022 -18.789524 -2.2523944 282.70001
-5.3686342 -23.82251 -2.2782676 282.70001
-1.188993 -5.2759781 -2.1118686 282.70001
-1.2767129 -5.6652222 -2.1136844 282.70001
-1.380463 -6.1255975 -2.1217353 282.70001
-1.4942479 -6.6305008 -2.1208682 282.70001
-1.6331562 -7.2468858 -2.1301255 282.70001
-1.7971402 -7.9745402 -2.1399748 282.70001
-1.9980425 -8.8660135 -2.1534235 282.70001
-2.2312763 -9.9009533 -2.1572917 282.70001
-2.5303195 -11.227913 -2.1685014 282.70001
-2.9658878 -12.980975 -2.1876543 282.87
-3.5004778 -15.320747 -2.2086771 282.87
-4.293673 -18.79237 -2.2542527 282.87
-5.4450598 -23.831713 -2.2806828 282.87
-1.2046418 -5.2724266 -2.1118686 282.87
-1.2922605 -5.6559124 -2.1116323 282.87
-1.3977878 -6.1177802 -2.120455 282.87
-1.5126386 -6.6204543 -2.119081 282.87
-1.6542227 -7.2401338 -2.1295743 282.87
-1.8207933 -7.969173 -2.1399748 282.87
-2.0265069 -8.8695326 -2.1557291 282.87
-2.2610788 -9.8961964 -2.1577075 282.87
-2.5644977 -11.224188 -2.1692419 282.87
-3.0052805 -12.975964 -2.1883028 283.04001
-3.5477076 -15.318011 -2.2097905 283.04001
-4.3476191 -18.771807 -2.2533236 283.04001
-5.5251813 -23.856192 -2.2845843 283.04001
-1.2185987 -5.2615695 -2.1089587 283.04001
-1.3103083 -5.657546 -2.1136844 283.04001
-1.416361 -6.1154518 -2.1210952 283.04001
-1.5339984 -6.6233768 -2.121464 283.04001
-1.6761311 -7.2370667 -2.1301255 283.04001
-1.8435571 -7.9599657 -2.1389618 283.04001
-2.0506189 -8.854001 -2.1534235 283.04001
-2.2908728 -9.8913498 -2.1581233 283.04001
-2.5977893 -11.21653 -2.1692419 283.04001
-3.0424147 -12.961226 -2.18733 283.20999
-3.592236 -15.303562 -2.2092338 283.20999
-4.4046588 -18.764627 -2.2540205 283.20999
-5.6004901 -23.859079 -2.286442 283.20999
-1.235482 -5.2633719 -2.1111412 283.20999
-1.3262299 -5.6499743 -2.1123164 283.20999
-1.4340667 -6.1093779 -2.120455 283.20999
-1.5536435 -6.6187963 -2.121464 283.20999
-1.6971571 -7.2301898 -2.1295743 283.20999
-1.8671666 -7.9544606 -2.1389618 283.20999
-2.0782144 -8.8535614 -2.1548069 283.20999
-2.321552 -9.8902225 -2.1593709 283.20999
-2.6315069 -11.210686 -2.1696122 283.20999
-3.0835755 -12.953524 -2.1876543 283.39001
-3.6384611 -15.284494 -2.2081203 283.39001
-4.4645076 -18.75456 -2.2544851 283.39001
-5.6878691 -23.893673 -2.2914584 283.39001
-1.2520112 -5.2594643 -2.1111412 283.39001
-1.3439733 -5.6457801 -2.1123164 283.39001
-1.4532528 -6.1048427 -2.120455 283.39001
-1.5744294 -6.613883 -2.121464 283.39001
-1.7207534 -7.2285633 -2.1306767 283.39001
-1.8930433 -7.9523201 -2.1399748 283.39001
-2.1055677 -8.8450956 -2.1543458 283.39001
-2.3535178 -9.8866873 -2.1602025 283.39001
-2.665803 -11.19854 -2.1688716 283.39001
-3.1229212 -12.948154 -2.1883028 283.56
-3.6884387 -15.292885 -2.2109039 283.56
-4.5233941 -18.754749 -2.2561111 283.56
