# .PCD v0.7 - Point Cloud Data file format
VERSION 0.7
FIELDS x y z intensity
SIZE 4 4 4 4
TYPE F F F F
COUNT 1 1 1 1
WIDTH 1214
HEIGHT 1
VIEWPOINT 0 0 0 1 0 0 0
POINTS 1214
DATA ascii
2.4843628 -6.2019305 -1.5830199 248.17
2.5911984 -6.4686337 -1.4811629 248.17
4.0576739 -10.129524 -2.0559289 248.17
4.285923 -10.791974 -1.6319438 248.34
4.2547574 -10.713498 -1.348045 248.34
6.8311291 -17.200815 -1.7266753 248.34
1.748656 -4.4031239 -2.1093361 248.34
10.230613 -25.760731 -1.2925969 248.34
1.8575315 -4.6772728 -2.1020968 248.34
11.150399 -28.076756 -0.70138377 248.34
1.9542452 -4.9207983 -2.0674925 248.34
15.67264 -39.463779 0 248.34
1.9901603 -5.0112329 -1.9625115 248.34
2.2372229 -5.6333375 -2.0481086 248.34
2.1070099 -5.3054605 -1.781291 248.34
2.1557634 -5.4282222 -1.6747726 248.34
2.2495131 -5.6642847 -1.5954841 248.34
2.5176687 -6.3395014 -1.6162205 248.34
4.1937256 -10.55982 -2.1407285 248.34
4.2850823 -10.883885 -1.6439127 248.50999
6.2212663 -15.801692 -1.9859446 248.50999
6.7844405 -17.232124 -1.72779 248.50999
9.4234018 -23.93495 -1.7987404 248.50999
1.7369226 -4.4116931 -2.1109631 248.50999
10.214881 -25.945265 -1.3003298 248.50999
1.8456738 -4.6879153 -2.1044092 248.50999
11.172522 -28.377623 -0.70806849 248.50999
1.9491912 -4.9508438 -2.0776772 248.50999
15.575994 -39.562214 0 248.50999
1.9773484 -5.0223618 -1.9645637 248.50999
2.143451 -5.4442534 -1.9770426 248.50999
2.407769 -6.1156073 -1.7205904 248.50999
2.3890555 -6.0680761 -1.5452082 248.50999
2.4753675 -6.2873044 -1.4362539 248.50999
3.8434112 -9.762064 -1.9766837 248.50999
4.2707582 -10.942641 -1.9298826 248.67999
5.1651068 -13.234162 -1.9965773 248.67999
4.2951088 -11.005033 -1.3814964 248.67999
6.680429 -17.116758 -1.7142278 248.67999
7.6005478 -19.474308 -1.4618167 248.67999
1.7251538 -4.4202313 -2.1125901 248.67999
10.080472 -25.82843 -1.2929696 248.67999
1.8344404 -4.7002478 -2.1074927 248.67999
11.778884 -30.180141 -0.75216901 248.67999
1.94804 -4.9913154 -2.0922267 248.67999
12.80298 -32.804108 0 248.67999
1.9699544 -5.0474653 -1.9720881 248.67999
2.1286659 -5.4541197 -1.978323 248.67999
2.2975609 -5.8868666 -1.81204 248.67999
2.3825784 -6.1047006 -1.7155253 248.67999
2.4340136 -6.2364888 -1.5862477 248.67999
3.1366692 -8.03685 -1.8337811 248.67999
4.2556591 -11.005916 -1.6583867 248.86
6.1332207 -15.861634 -1.9887322 248.86
6.3817239 -16.504309 -1.6508754 248.86
1.7086231 -4.4188123 -2.1093361 248.86
10.02666 -25.93078 -1.29651 248.86
1.8189994 -4.7042661 -2.1067219 248.86
11.608296 -30.021183 -0.74729472 248.86
1.9383968 -5.0130496 -2.0987742 248.86
12.769105 -33.023247 0 248.86
1.9649323 -5.0816755 -1.9830328 248.86
2.1087875 -5.453711 -1.975762 248.86
2.2742021 -5.8815036 -1.808181 248.86
2.3808329 -6.1572704 -1.7281879 248.86
2.3870366 -6.1733141 -1.5682641 248.86
3.099411 -8.015645 -1.8267121 248.86
3.7844155 -9.7871923 -1.9770541 248.86
4.1972694 -10.945679 -1.9259918 249.02
4.154706 -10.834682 -1.6308304 249.02
6.0789456 -15.852733 -1.9854801 249.02
6.4432716 -16.802824 -1.6789289 249.02
7.3005524 -19.03845 -1.4258224 249.02
1.6943142 -4.4184489 -2.1068959 249.02
11.164507 -29.114908 -1.4541483 249.02
1.8045341 -4.7058811 -2.1051803 249.02
11.506519 -30.006809 -0.74613422 249.02
1.9263912 -5.0236616 -2.1009564 249.02
12.80788 -33.400513 0 249.02
1.9635191 -5.1204839 -1.9960296 249.02
2.0820167 -5.429503 -1.9648781 249.02
2.2940857 -5.9825392 -1.9993353 249.02
2.0946314 -5.4624 -1.677529 249.02
2.3982663 -6.2542214 -1.753513 249.02
2.4081116 -6.2798963 -1.5936257 249.02
3.1414552 -8.192317 -1.8649678 249.02
3.7408848 -9.7555151 -1.9685371 249.02
4.142736 -10.911567 -1.9175614 249.21001
4.1693687 -10.981713 -1.6508713 249.21001
4.1691546 -10.98115 -1.3735981 249.21001
6.4737477 -17.051226 -1.7015945 249.21001
7.3216491 -19.284515 -1.4424244 249.21001
1.6828954 -4.4325838 -2.1109631 249.21001
11.192702 -29.480494 -1.4705456 249.21001
1.7915391 -4.7187405 -2.1082635 249.21001
11.501339 -30.293415 -0.75230825 249.21001
1.9130279 -5.0387306 -2.104594 249.21001
15.318665 -40.347881 0 249.21001
1.9605367 -5.1638641 -2.0103943 249.21001
2.0633278 -5.4346061 -1.9642378 249.21001
2.2545822 -5.9383516 -1.9820585 249.21001
2.0758235 -5.4675183 -1.6769776 249.21001
2.5109198 -6.6135201 -1.6761658 249.21001
3.098995 -8.1624527 -1.8558197 249.21001
3.6910734 -9.7219305 -1.9592794 249.21001
4.0733099 -10.819661 -1.8994039 249.37
4.1477571 -11.017409 -1.6544899 249.37
4.1370735 -10.989032 -1.3731335 249.37
6.5916882 -17.50906 -1.7454394 249.37
6.8403764 -18.169634 -1.3576005 249.37
1.6698669 -4.4355559 -2.1101496 249.37
10.959699 -29.111515 -1.4506079 249.37
1.7770544 -4.7202706 -2.1067219 249.37
11.475875 -30.482599 -0.7562077 249.37
1.9009188 -5.0492835 -2.1067765 249.37
1.95869 -5.2027373 -2.0233912 249.37
2.0514815 -5.449213 -1.9674391 249.37
2.2534621 -5.9857202 -1.9957608 249.37
2.2346303 -5.935699 -1.8186553 249.37
2.4779496 -6.5820117 -1.841138 249.37
2.5253544 -6.7079296 -1.6982995 249.37
2.8604491 -7.5980196 -1.725667 249.37
3.6859126 -9.8794413 -1.7324198 249.53999
4.0908189 -10.964722 -1.6447477 249.53999
5.9869003 -16.046835 -2.0029027 249.53999
6.3294911 -16.96509 -1.6893327 249.53999
6.7968969 -18.21789 -1.3596932 249.53999
1.6535058 -4.431932 -2.1060824 249.53999
10.880957 -29.164495 -1.4516327 249.53999
1.7636864 -4.7272515 -2.1074927 249.53999
1.8846265 -5.0514107 -2.1053214 249.53999
1.9557266 -5.241982 -2.0363879 249.53999
2.0339797 -5.4517255 -1.9661585 249.53999
2.2343574 -5.9888024 -1.9945693 249.53999
2.302356 -6.171061 -1.8886671 249.53999
2.2196698 -5.9494352 -1.6623425 249.53999
2.3068011 -6.1829753 -1.5636529 249.53999
2.8064365 -7.5221605 -1.7065392 249.53999
3.272959 -8.7725916 -1.7641292 249.53999
3.5932932 -9.7243643 -1.7032381 249.72
4.0618439 -10.992382 -1.6469744 249.72
5.9440322 -16.086061 -2.0054579 249.72
6.4832287 -17.545263 -1.7450678 249.72
7.2714152 -19.678297 -1.4669787 249.72
1.638941 -4.4353909 -2.105269 249.72
10.787895 -29.194786 -1.4514464 249.72
1.7481869 -4.7310381 -2.1067219 249.72
11.50568 -31.137293 -0.77069122 249.72
1.8713307 -5.0642962 -2.1082313 249.72
14.627562 -39.585896 0 249.72
1.9568369 -5.2956977 -2.054857 249.72
2.0188129 -5.4634204 -1.9680792 249.72
2.2062676 -5.9707203 -1.9862288 249.72
2.2802923 -6.1710505 -1.8864621 249.72
2.2204161 -6.0090103 -1.677031 249.72
2.4499295 -6.6301317 -1.6747825 249.72
2.7305801 -7.3896432 -1.6745207 249.72
2.9476852 -7.9771852 -1.6023062 249.72
3.6530194 -9.9715586 -1.744741 249.88
3.9582348 -10.804697 -1.6171914 249.88
5.8683391 -16.018661 -1.9950044 249.88
6.2335029 -17.01544 -1.6906332 249.88
6.6468067 -18.143625 -1.3511829 249.88
1.6303197 -4.4502439 -2.1101496 249.88
11.17158 -30.494789 -1.5145204 249.88
1.7362382 -4.739367 -2.1082635 249.88
11.459263 -31.280069 -0.77343011 249.88
1.8552587 -5.0642543 -2.1060488 249.88
14.505952 -39.596542 0 249.88
1.9491522 -5.3205533 -2.0623815 249.88
2.0035481 -5.4690366 -1.9680792 249.88
2.2138851 -6.0431881 -2.0082715 249.88
2.2465177 -6.1322641 -1.8726802 249.88
2.3806627 -6.4984369 -1.8117609 249.88
2.4869685 -6.7886176 -1.7130553 249.88
2.5194912 -6.8773942 -1.5568427 249.88
3.1708143 -8.6552944 -1.7367266 249.88
4.9016242 -13.511108 -2.0199585 250.06
5.8518586 -16.130388 -2.0066195 250.06
6.5148239 -17.957821 -1.7822247 250.06
6.5401039 -18.027506 -1.3409984 250.06
1.6119691 -4.4433208 -2.1044555 250.06
10.897895 -30.039562 -1.4902039 250.06
1.7213405 -4.7447982 -2.1082635 250.06
11.356164 -31.302759 -0.77310514 250.06
1.8412458 -5.0753117 -2.1082313 250.06
11.346265 -31.275473 0 250.06
1.949092 -5.3725853 -2.0801666 250.06
1.9882954 -5.4806476 -1.9699999 250.06
2.2092133 -6.0895982 -2.021378 250.06
2.1649547 -5.9676008 -1.820309 250.06
2.3820102 -6.5659046 -1.8284755 250.06
2.4277987 -6.6921186 -1.6867715 250.06
3.1476288 -8.6762981 -1.7389485 250.06
3.0947208 -8.6100597 -1.5031815 250.23
4.0711131 -11.326556 -1.4075142 250.23
6.4210992 -17.864634 -1.7710776 250.23
8.9058971 -24.777781 -1.8411523 250.23
1.5993963 -4.4498034 -2.105269 250.23
1.7078791 -4.7516217 -2.1090343 250.23
11.365359 -31.620438 -0.78011483 250.23
1.8268092 -5.0825057 -2.1089587 250.23
11.289949 -31.410633 0 250.23
1.9414067 -5.4013367 -2.0890591 250.23
1.9758706 -5.4972215 -1.9738413 250.23
2.204051 -6.1320596 -2.033293 250.23
2.1322825 -5.9323864 -1.8076298 250.23
2.1013978 -5.8464603 -1.6263808 250.23
2.5621314 -7.1283026 -1.6100681 250.23
3.1152241 -8.6671038 -1.7352455 250.23
3.8015478 -10.675986 -1.592697 250.39999
5.7893548 -16.258398 -2.0182345 250.39999
6.0327287 -16.94187 -1.6778141 250.39999
6.561512 -18.426867 -1.367785 250.39999
1.5904769 -4.466578 -2.1109631 250.39999
11.052523 -31.039091 -1.5365077 250.39999
1.6919161 -4.7514524 -2.1067219 250.39999
11.258076 -31.616348 -0.77918637 250.39999
1.812346 -5.0896587 -2.1096864 250.39999
1.9260025 -5.4088435 -2.0897431 250.39999
1.9646362 -5.5173392 -1.9789633 250.39999
2.1749597 -6.107996 -2.0231652 250.39999
2.0785561 -5.8372641 -1.7767584 250.39999
2.2579825 -6.3411512 -1.7621236 250.39999
2.2868559 -6.4222379 -1.6152982 250.39999
2.6630313 -7.4786606 -1.6874113 250.39999
2.7229221 -7.6468534 -1.5293564 250.39999
3.483844 -9.8709106 -1.7197745 250.56
3.7868807 -10.729516 -1.5990989 250.56
5.7366576 -16.253895 -2.0156791 250.56
6.3387122 -17.959719 -1.3317906 250.56
1.574349 -4.4606643 -2.1060824 250.56
10.947849 -31.018969 -1.5339923 250.56
1.6798693 -4.7596393 -2.1082635 250.56
11.199022 -31.730625 -0.7812289 250.56
1.799366 -5.0982137 -2.1111412 250.56
1.9121417 -5.4177451 -2.0911112 250.56
1.9630947 -5.5621123 -1.9930484 250.56
2.0988002 -5.9466119 -1.9677606 250.56
2.2510042 -6.3778572 -1.9393845 250.56
2.2119324 -6.2671542 -1.7398374 250.56
2.2630835 -6.4120822 -1.6111481 250.56
2.47155 -7.002739 -1.5784656 250.56
3.5259173 -10.096677 -1.7570622 250.75
3.8511832 -11.028094 -1.6416858 250.75
3.8424058 -11.00296 -1.3629123 250.75
6.0427046 -17.303648 -1.7099547 250.75
6.2909608 -18.014545 -1.3343018 250.75
1.5595483 -4.4658604 -2.1060824 250.75
10.649303 -30.494921 -1.5063217 250.75
1.6628597 -4.7616987 -2.1067219 250.75
11.0265 -31.575045 -0.77649391 250.75
1.7818356 -5.1023936 -2.1104138 250.75
1.9028399 -5.4488969 -2.1006877 250.75
1.9565083 -5.6025791 -2.0052128 250.75
2.072145 -5.933712 -1.9612073 250.75
2.2589986 -6.4687786 -1.964743 250.75
2.3180768 -6.6379528 -1.8406315 250.75
2.2418077 -6.4195518 -1.6111481 250.75
2.6185873 -7.4984822 -1.6882429 250.75
2.9185042 -8.3573122 -1.66785 250.75
3.4634995 -10.007638 -1.7398773 250.91
3.8365653 -11.085597 -1.6486446 250.91
5.6398606 -16.296144 -2.0166085 250.91
1.5470712 -4.4701982 -2.1060824 250.91
9.3259192 -26.946856 -1.3297704 250.91
1.6501596 -4.7680678 -2.1074927 250.91
13.308778 -38.455162 -0.94477218 250.91
1.7669708 -5.1055889 -2.1096864 250.91
1.8925335 -5.4683976 -2.1061599 250.91
1.9563473 -5.6527848 -2.0212188 250.91
2.0524447 -5.9304543 -1.9582286 250.91
2.2384105 -6.4677944 -1.962538 250.91
2.2938361 -6.6279449 -1.836073 250.91
2.3740823 -6.8598127 -1.7199721 250.91
2.4754331 -7.1526618 -1.6088207 250.91
2.9838607 -8.6217422 -1.7189521 250.91
3.3680835 -9.8317671 -1.7074533 251.09
3.7863154 -11.052628 -1.6419642 251.09
5.5879931 -16.311903 -2.016376 251.09
6.2735691 -18.313166 -1.806005 251.09
6.7548857 -19.718176 -1.4574918 251.09
1.5336121 -4.4767647 -2.1068959 251.09
9.2845964 -27.102652 -1.3360127 251.09
1.6333779 -4.7679911 -2.1051803 251.09
1.7533375 -5.1181645 -2.1125963 251.09
1.8796084 -5.4867616 -2.1109483 251.09
1.9545445 -5.7055078 -2.0378647 251.09
2.0356598 -5.9422913 -1.9600158 251.09
2.2224417 -6.4875259 -1.9663969 251.09
2.2999651 -6.7138247 -1.8578526 251.09
2.3455822 -6.8469853 -1.7148998 251.09
2.5677044 -7.4953818 -1.6840847 251.09
3.0089905 -8.7835398 -1.749317 251.09
2.979656 -8.7777834 -1.5229601 251.25
3.7866304 -11.155054 -1.6556032 251.25
5.5136867 -16.242796 -2.0059226 251.25
6.119349 -18.02702 -1.7760938 251.25
6.6100121 -19.472467 -1.4379599 251.25
1.527565 -4.5000615 -2.115844 251.25
9.0990629 -26.804976 -1.3200811 251.25
1.6230229 -4.7812715 -2.1090343 251.25
1.7384392 -5.1212769 -2.1118686 251.25
16.519417 -48.664635 0 251.25
1.8630708 -5.48843 -2.1095803 251.25
16.514967 -48.651524 1.1928492 251.25
1.9526123 -5.7522101 -2.0525901 251.25
16.511116 -48.640179 2.3954129 251.25
2.0202854 -5.9515686 -1.9612073 251.25
16.514448 -48.649998 3.592598 251.25
2.2006085 -6.4827838 -1.9630892 251.25
2.2557089 -6.6451039 -1.837086 251.25
2.3427172 -6.9014225 -1.7268889 251.25
2.6247385 -7.7322302 -1.7356468 251.25
3.0166707 -8.8868246 -1.7682025 251.25
3.2866042 -9.7885475 -1.696429 251.44
3.6607318 -10.902818 -1.6163564 251.44
3.6388083 -10.837523 -1.3368945 251.44
5.851635 -17.42802 -1.7151567 251.44
6.6031919 -19.666395 -1.4506556 251.44
1.5108892 -4.4999061 -2.1134036 251.44
9.0482788 -26.948637 -1.3256712 251.44
1.604809 -4.7796292 -2.1059511 251.44
11.876938 -35.37328 -0.86631972 251.44
1.7226329 -5.1305456 -2.1133237 251.44
1.8460567 -5.4981413 -2.1109483 251.44
1.9467946 -5.7981706 -2.0666752 251.44
2.0023613 -5.963665 -1.9629946 251.44
2.177875 -6.4864006 -1.9619867 251.44
2.231813 -6.6470451 -1.8355665 251.44
2.2721212 -6.767096 -1.6913828 251.44
2.551759 -7.5999455 -1.7040442 251.44
2.9509001 -8.7887144 -1.7467248 251.44
3.2114727 -9.6596718 -1.6724353 251.61
3.5715072 -10.742606 -1.5910269 251.61
3.6223042 -10.895396 -1.342702 251.61
6.5913892 -19.826 -1.4609796 251.61
1.4952254 -4.4974341 -2.1101496 251.61
10.426753 -31.362249 -1.5412593 251.61
1.5912027 -4.7861209 -2.1067219 251.61
11.763731 -35.383698 -0.86571622 251.61
1.7062272 -5.1320987 -2.1118686 251.61
1.8267708 -5.4946771 -2.1075282 251.61
1.9451244 -5.8506689 -2.0833213 251.61
1.9846579 -5.9695802 -1.9629946 251.61
2.1743894 -6.540267 -1.9763198 251.61
2.1730156 -6.5361342 -1.8031503 251.61
2.2360697 -6.7257924 -1.6793936 251.61
2.6069629 -7.8413887 -1.756438 251.61
2.9297709 -8.8123512 -1.7496873 251.61
3.1778612 -9.6541615 -1.6698413 251.78
3.54581 -10.771969 -1.5938103 251.78
3.5607691 -10.817413 -1.3317839 251.78
5.9523349 -18.082853 -1.7760938 251.78
6.251821 -18.992676 -1.3981987 251.78
1.4835886 -4.5070572 -2.1125901 251.78
8.8544722 -26.899382 -1.3206402 251.78
1.5775721 -4.7925739 -2.1074927 251.78
12.867136 -39.089626 -0.95544916 251.78
1.6898274 -5.1335993 -2.1104138 251.78
1.8098722 -5.4982882 -2.1068442 251.78
1.9419749 -5.8996086 -2.0986869 251.78
1.9669371 -5.9754424 -1.9629946 251.78
2.1886365 -6.648953 -2.0071912 251.78
2.1790206 -6.6197405 -1.8244234 251.78
2.2154956 -6.7305489 -1.6789325 251.78
2.5769572 -7.8286486 -1.751864 251.78
3.2017915 -9.8249197 -1.697726 251.95
3.674613 -11.275805 -1.6667371 251.95
5.3751554 -16.494038 -2.0286882 251.95
6.4680605 -19.847692 -1.4597239 251.95
1.4713415 -4.5149136 -2.114217 251.95
10.74187 -32.962173 -1.6167244 251.95
1.5639172 -4.7989883 -2.1082635 251.95
11.365217 -34.874958 -0.85160404 251.95
1.6740111 -5.1368189 -2.1096864 251.95
1.7935504 -5.503634 -2.1068442 251.95
1.9332681 -5.9323673 -2.1082904 251.95
1.9580723 -6.008481 -1.9719309 251.95
2.1718776 -6.664557 -2.0099475 251.95
2.2025335 -6.7586265 -1.8608917 251.95
2.2497857 -6.9036236 -1.7204332 251.95
2.4797673 -7.6093378 -1.7011335 251.95
2.8092206 -8.6202879 -1.7082132 251.95
3.1561551 -9.7774782 -1.6879988 252.11
3.617558 -11.206862 -1.6550465 252.11
5.332736 -16.520327 -2.030082 252.11
6.8459196 -21.208029 -1.5583596 252.11
1.4576052 -4.5155272 -2.1125901 252.11
10.64978 -32.992043 -1.6167244 252.11
1.5482421 -4.7963119 -2.1051803 252.11
11.342104 -35.136795 -0.85722107 252.11
1.6596599 -5.1414738 -2.1096864 252.11
11.270821 -34.915966 0 252.11
1.7804837 -5.5157747 -2.1095803 252.11
1.9178584 -5.941349 -2.109571 252.11
1.9571211 -6.0629816 -1.988016 252.11
2.1609359 -6.6943808 -2.0171142 252.11
2.2276332 -6.9010034 -1.8983729 252.11
2.3058248 -7.1432333 -1.7785342 252.11
2.3022599 -7.1321898 -1.5930194 252.11
2.8195515 -8.7347116 -1.7293205 252.11
3.0721126 -9.6262007 -1.660114 252.3
5.2821507 -16.551167 -2.031708 252.3
6.1681919 -19.327499 -1.8927661 252.3
6.7300596 -21.088064 -1.5478961 252.3
1.4426233 -4.5203362 -2.1125901 252.3
10.961856 -34.348034 -1.6813822 252.3
1.5323285 -4.8014197 -2.1051803 252.3
11.431602 -35.819946 -0.872958 252.3
1.6437339 -5.1504989 -2.1111412 252.3
16.975382 -53.190903 0 252.3
1.7616116 -5.5198584 -2.1088963 252.3
1.8998739 -5.9530916 -2.1114917 252.3
1.9515164 -6.1149092 -2.0029099 252.3
2.1124215 -6.6190915 -1.9923068 252.3
2.2194426 -6.9544325 -1.9110354 252.3
2.4017153 -7.5255685 -1.6790948 252.3
2.7917657 -8.7477579 -1.7300612 252.3
3.0225017 -9.5570621 -1.6468202 252.45
3.4524527 -10.916553 -1.6091194 252.45
3.6281071 -11.471968 -1.4070495 252.45
6.1415901 -19.419527 -1.9001974 252.45
6.6886649 -21.149363 -1.5511049 252.45
1.431335 -4.5258393 -2.1134036 252.45
10.985753 -34.736629 -1.6989907 252.45
1.523092 -4.8159723 -2.1098051 252.45
11.20575 -35.432251 -0.86279166 252.45
1.630806 -5.1565609 -2.1118686 252.45
16.736563 -52.920521 0 252.45
1.7460212 -5.5208678 -2.1075282 252.45
1.8848535 -5.9598517 -2.1121318 252.45
1.954499 -6.1800685 -2.0225694 252.45
2.070158 -6.5457788 -1.9686019 252.45
2.182559 -6.9011874 -1.8948274 252.45
2.2592878 -7.1438017 -1.7753063 252.45
2.423888 -7.6642623 -1.7086183 252.45
2.9943259 -9.5783339 -1.6487657 252.64
3.4392798 -11.001665 -1.6199749 252.64
5.1980672 -16.627724 -2.0372832 252.64
6.2892771 -20.118317 -1.9665222 252.64
6.6714759 -21.340904 -1.5635216 252.64
1.4174092 -4.5340486 -2.1150305 252.64
10.975416 -35.108471 -1.7153881 252.64
1.5054613 -4.8157125 -2.1074927 252.64
11.0864 -35.46349 -0.86265236 252.64
1.6125855 -5.1583838 -2.1104138 252.64
16.587833 -53.06163 0 252.64
1.7305075 -5.5355964 -2.1109483 252.64
1.8639489 -5.9624524 -2.1108515 252.64
1.9482359 -6.2320719 -2.0374632 252.64
2.04844 -6.5526075 -1.9686019 252.64
2.1942997 -7.0191875 -1.9252175 252.64
2.4115293 -7.7140679 -1.9150252 252.64
2.2466946 -7.18679 -1.6005042 252.64
2.6143103 -8.3627291 -1.6508161 252.64
2.9600606 -9.5683222 -1.6455232 252.81
3.4341326 -11.100748 -1.6330571 252.81
3.4860926 -11.268707 -1.3794057 252.81
6.2583952 -20.230106 -1.9756256 252.81
6.571569 -21.242434 -1.5548718 252.81
1.4017903 -4.5312524 -2.1117766 252.81
10.721817 -34.658009 -1.6918169 252.81
1.4917117 -4.8219209 -2.1082635 252.81
11.060313 -35.752186 -0.86887288 252.81
1.5972732 -5.163146 -2.1104138 252.81
16.48234 -53.278751 0 252.81
1.7129647 -5.5371156 -2.1095803 252.81
1.8501697 -5.9806271 -2.1153331 252.81
1.9449712 -6.2870712 -2.0535486 252.81
2.0289891 -6.5586562 -1.9686019 252.81
2.1179976 -6.846375 -1.8760867 252.81
2.3598726 -7.6282296 -1.8919693 252.81
2.3808877 -7.6961608 -1.7123607 252.81
2.4518216 -7.9254522 -1.563054 252.81
2.9616966 -9.6751928 -1.6623838 252.98
3.3408906 -10.913934 -1.6041092 252.98
6.2076697 -20.279053 -1.9785982 252.98
6.4495301 -21.069155 -1.540781 252.98
1.3851309 -4.524909 -2.1068959 252.98
9.0289335 -29.495483 -1.4384962 252.98
1.4790188 -4.8316197 -2.1105762 252.98
10.947163 -35.761902 -0.86831582 252.98
1.5824921 -5.1696439 -2.1111412 252.98
16.232277 -53.027172 0 252.98
1.6998287 -5.5529561 -2.1136844 252.98
1.831862 -5.9842787 -2.1146929 252.98
1.9413971 -6.3421049 -2.0696337 252.98
2.0112083 -6.5701628 -1.9702559 252.98
2.1633687 -7.0672359 -1.934841 252.98
2.144691 -7.0062199 -1.7361113 252.98
2.3477354 -7.6695199 -1.7048758 252.98
2.4472802 -7.9947104 -1.575274 252.98
2.951869 -9.75245 -1.6740564 253.16
3.2951119 -10.886464 -1.5985422 253.16
6.1473923 -20.309891 -1.979713 253.16
6.3890877 -21.108408 -1.5421761 253.16
1.3714379 -4.5309873 -2.1077092 253.16
10.304441 -34.044041 -1.6587427 253.16
1.4622285 -4.8309431 -2.1082635 253.16
13.50913 -44.63176 -1.0826443 253.16
1.5667832 -5.176373 -2.1118686 253.16
16.066765 -53.081734 0 253.16
1.6818309 -5.5564699 -2.1130004 253.16
1.8125039 -5.9881907 -2.1140525 253.16
1.93695 -6.3993382 -2.0863147 253.16
1.9911146 -6.5782886 -1.9708071 253.16
2.1450794 -7.0869603 -1.9383866 253.16
2.1502955 -7.1041937 -1.7587061 253.16
2.3315635 -7.7030716 -1.7106974 253.16
2.4227214 -8.00424 -1.5756444 253.16
2.9223595 -9.746912 -1.6717868 253.31
3.2700129 -10.906436 -1.6002123 253.31
6.1084976 -20.373602 -1.9843575 253.31
6.9543495 -23.194761 -1.6932687 253.31
1.3637689 -4.548563 -2.114217 253.31
10.929614 -36.453415 -1.7747355 253.31
1.4490463 -4.8329868 -2.1074927 253.31
1.552156 -5.176888 -2.1104138 253.31
15.961632 -53.236645 0 253.31
1.6661987 -5.5572534 -2.1116323 253.31
1.7973648 -5.99473 -2.1146929 253.31
1.9289629 -6.4336476 -2.0958467 253.31
1.9771987 -6.5945282 -1.9741148 253.31
2.2070894 -7.3612795 -2.0118296 253.31
2.0651789 -6.8879671 -1.703833 253.31
2.3052089 -7.6885362 -1.7061234 253.31
2.396678 -7.9936123 -1.5723116 253.31
3.7313113 -12.588628 -2.1571755 253.49001
4.2550259 -14.355525 -2.1042974 253.49001
4.7600198 -16.059263 -1.9587654 253.49001
6.0518188 -20.417511 -1.9867727 253.49001
6.3309083 -21.359098 -1.5578016 253.49001
1.3499918 -4.5545764 -2.1150305 253.49001
8.3635006 -28.216621 -1.3724409 253.49001
1.4333314 -4.8357463 -2.1067219 253.49001
1.5358847 -5.1817389 -2.1104138 253.49001
15.806241 -53.326797 0 253.49001
1.6487319 -5.5624604 -2.1116323 253.49001
1.7795999 -6.0039806 -2.1159732 253.49001
1.9152523 -6.4616418 -2.1029956 253.49001
1.9592035 -6.6099234 -1.9768711 253.49001
2.1135731 -7.130733 -1.9469972 253.49001
2.0656517 -6.9690561 -1.7222776 253.49001
2.2710361 -7.6619787 -1.6986386 253.49001
2.5022514 -8.4420481 -1.6589627 253.49001
3.6922781 -12.593962 -2.1562028 253.66
4.2190995 -14.390893 -2.1076374 253.66
4.7112322 -16.069504 -1.9583008 253.66
6.000176 -20.465952 -1.9897453 253.66
6.7996221 -23.192776 -1.6900599 253.66
1.3328739 -4.546289 -2.1093361 253.66
8.3027887 -28.319914 -1.3762608 253.66
1.4200156 -4.8435197 -2.1082635 253.66
1.5220759 -5.1916361 -2.1125963 253.66
15.650199 -53.381134 0 253.66
1.6327493 -5.5691314 -2.1123164 253.66
1.761778 -6.009234 -2.1159732 253.66
1.9003689 -6.4819531 -2.1077616 253.66
1.9531047 -6.661829 -1.990653 253.66
2.1348643 -7.2817917 -1.9865043 253.66
2.0263495 -6.9116588 -1.7065996 253.66
2.3225937 -7.9221163 -1.7547747 253.66
2.5264044 -8.6172924 -1.6919198 253.66
3.6417093 -12.567588 -2.149718 253.84
4.6518793 -16.053698 -1.954584 253.84
5.9452729 -20.517218 -1.9929036 253.84
6.7211733 -23.194859 -1.6886647 253.84
1.3196019 -4.5539637 -2.1109631 253.84
8.2021017 -28.305561 -1.3743043 253.84
1.4047922 -4.8479567 -2.1082635 253.84
1.5042028 -5.1910243 -2.1104138 253.84
15.426199 -53.236019 0 253.84
1.6162915 -5.5778437 -2.1136844 253.84
1.7439455 -6.0183792 -2.1172538 253.84
1.8805273 -6.4897251 -2.1083574 253.84
1.949824 -6.7288685 -2.0088451 253.84
2.1426716 -7.3943887 -2.0153751 253.84
2.0734148 -7.1553822 -1.7651618 253.84
2.3461528 -8.0966043 -1.791783 253.84
2.3286507 -8.0362053 -1.5763849 253.84
2.7948363 -9.7596083 -1.6678959 254.02
4.1449537 -14.474238 -2.1159878 254.02
4.6364222 -16.190454 -1.9694512 254.02
4.6204224 -16.134583 -1.5657865 254.02
7.4661231 -26.07181 -1.8963995 254.02
1.3078036 -4.5668693 -2.1150305 254.02
8.1461363 -28.446428 -1.3798943 254.02
1.3890469 -4.8505716 -2.1074927 254.02
12.773865 -44.606522 -1.0772594 254.02
1.4899389 -5.202888 -2.1133237 254.02
1.5982429 -5.5810871 -2.1130004 254.02
1.7250296 -6.023828 -2.1172538 254.02
1.8596044 -6.4937654 -2.1077616 254.02
1.9450824 -6.7922564 -2.0259345 254.02
2.0943964 -7.3136621 -1.9915694 254.02
2.2357657 -7.8073258 -1.9242476 254.02
2.267925 -7.9196267 -1.7510322 254.02
2.3629119 -8.2513227 -1.6171184 254.02
2.7782335 -9.811532 -1.6753534 254.19
4.1030688 -14.490284 -2.1165445 254.19
4.5001469 -15.892594 -1.9315861 254.19
5.8225431 -20.562731 -1.9938325 254.19
7.5463686 -26.650547 -1.9368583 254.19
1.2907633 -4.5584235 -2.1093361 254.19
8.0137997 -28.301313 -1.3716956 254.19
1.3776656 -4.8653259 -2.1121178 254.19
1.47348 -5.203701 -2.1118686 254.19
1.5816764 -5.5858045 -2.1130004 254.19
1.7086976 -6.034389 -2.1191745 254.19
1.847091 -6.5231352 -2.1155064 254.19
1.9422059 -6.8590407 -2.0441267 254.19
2.0552917 -7.2584109 -1.9748548 254.19
2.1961544 -7.755878 -1.9099529 254.19
2.0482769 -7.2336383 -1.5980092 254.19
2.2784462 -8.0464983 -1.5756444 254.19
4.0595231 -14.500487 -2.1162663 254.36
4.429945 -15.823621 -1.9215971 254.36
4.5589557 -16.284445 -1.5776767 254.36
1.2787101 -4.5675116 -2.1117766 254.36
7.9825759 -28.513506 -1.3808259 254.36
1.3607363 -4.8605065 -2.1082635 254.36
12.422155 -44.37154 -1.0697855 254.36
1.4595405 -5.2134318 -2.1140511 254.36
16.192783 -57.840107 0 254.36
1.5661094 -5.5940924 -2.1143684 254.36
1.6918073 -6.0430818 -2.120455 254.36
1.8220664 -6.5083632 -2.1089532 254.36
1.9379134 -6.9221644 -2.0612161 254.36
2.0342681 -7.2663403 -1.9753613 254.36
2.1521463 -7.6873975 -1.8915082 254.36
2.683862 -9.6842566 -1.6510353 254.50999
4.0231342 -14.516791 -2.1171012 254.50999
4.3216577 -15.593962 -1.8923272 254.50999
4.5008845 -16.240671 -1.5722889 254.50999
6.8576407 -24.744625 -1.7955316 254.50999
1.2667481 -4.5708437 -2.1117766 254.50999
7.9260416 -28.599764 -1.3839936 254.50999
1.3480068 -4.8640523 -2.1082635 254.50999
1.4433991 -5.2082586 -2.1104138 254.50999
16.049316 -57.911209 0 254.50999
1.5504549 -5.5945511 -2.1130004 254.50999
1.6734506 -6.0383601 -2.1172538 254.50999
1.8050214 -6.5131111 -2.1089532 254.50999
1.9377553 -6.9920588 -2.0805109 254.50999
2.0173047 -7.279099 -1.9773873 254.50999
2.1751525 -7.8486657 -1.929781 254.50999
2.2340736 -8.0612726 -1.7780608 254.50999
2.2413445 -8.0875082 -1.5811989 254.50999
2.6883383 -9.8201752 -1.6727595 254.69
2.7381322 -10.002067 -1.4574207 254.69
4.3025432 -15.716672 -1.9055684 254.69
5.6618085 -20.681904 -2.0005207 254.69
6.7956734 -24.823776 -1.7997171 254.69
1.256724 -4.590661 -2.1190979 254.69
7.8440661 -28.653427 -1.3853911 254.69
1.3332067 -4.8700428 -2.1090343 254.69
12.135241 -44.328571 -1.0670466 254.69
1.4275216 -5.2145643 -2.1111412 254.69
1.5328715 -5.5993943 -2.1130004 254.69
1.6549727 -6.0454154 -2.1178939 254.69
1.7875756 -6.529798 -2.1125276 254.69
1.9325312 -7.0593033 -2.0987029 254.69
1.9959595 -7.2909994 -1.9789069 254.69
2.2190683 -8.1059885 -1.7863772 254.69
2.301034 -8.4053993 -1.6419288 254.69
2.6239915 -9.7047386 -1.6516838 254.87
3.9308097 -14.537958 -2.1165445 254.87
4.2324071 -15.653407 -1.8962764 254.87
5.201787 -19.238623 -1.8593249 254.87
6.6942205 -24.758333 -1.7934389 254.87
1.2375269 -4.5769491 -2.1109631 254.87
7.7310662 -28.593071 -1.3812917 254.87
1.316937 -4.8706441 -2.1074927 254.87
1.4125913 -5.2244186 -2.1133237 254.87
1.5157634 -5.6059966 -2.1136844 254.87
1.6369613 -6.0542431 -2.1191745 254.87
1.7670529 -6.5353818 -2.1125276 254.87
1.9198785 -7.1006017 -2.1091771 254.87
1.9735494 -7.2991014 -1.9794133 254.87
2.1711247 -8.0298271 -1.7680811 254.87
2.3156557 -8.5643702 -1.6715531 254.87
2.5855057 -9.6762552 -1.6455232 255.03999
3.8917475 -14.564865 -2.1187713 255.03999
4.2013278 -15.72347 -1.9032453 255.03999
5.1446819 -19.253971 -1.8593249 255.03999
6.6392727 -24.847477 -1.7984614 255.03999
7.3346949 -27.450094 -1.325019 255.03999
1.3024797 -4.8745303 -2.1074927 255.03999
1.3966031 -5.2267871 -2.1125963 255.03999
1.4986383 -5.6086535 -2.1130004 255.03999
1.6170344 -6.0517511 -2.1166136 255.03999
1.7476543 -6.540596 -2.1125276 255.03999
1.9062464 -7.1341271 -2.1174462 255.03999
1.95538 -7.3180094 -1.9829588 255.03999
2.0878894 -7.8139262 -1.9164085 255.03999
2.1806207 -8.1609726 -1.7955253 255.03999
2.2242775 -8.324358 -1.6234136 255.03999
2.6094687 -9.89042 -1.6805413 255.22
3.62164 -13.726757 -1.9951856 255.22
4.1767421 -15.830707 -1.9146281 255.22
5.0917888 -19.298922 -1.8621117 255.22
6.5739036 -24.916441 -1.8019493 255.22
9.2722921 -35.143883 -1.6949846 255.22
1.2881011 -4.8821669 -2.1090343 255.22
11.853727 -44.928051 -1.0787913 255.22
1.380651 -5.2329502 -2.1133237 255.22
1.4814903 -5.6151514 -2.1136844 255.22
1.598981 -6.0604653 -2.1178939 255.22
1.7275848 -6.5479002 -2.1131234 255.22
1.884315 -7.1419396 -2.1179974 255.22
1.9412647 -7.3577905 -1.9920759 255.22
2.0782251 -7.8768983 -1.9302422 255.22
2.2213476 -8.4193611 -1.8508298 255.22
2.2246888 -8.4320259 -1.6430397 255.22
2.518882 -9.6632223 -1.6406596 255.39
3.8007054 -14.5807 -2.1176579 255.39
4.0771418 -15.641195 -1.8902365 255.39
5.505156 -21.119507 -2.0361912 255.39
6.336894 -24.310316 -1.756747 255.39
7.5095477 -28.808983 -1.3883724 255.39
1.2731444 -4.8841815 -2.1082635 255.39
11.783918 -45.20681 -1.0846404 255.39
1.3646486 -5.2352209 -2.1125963 255.39
1.4648232 -5.6195221 -2.1136844 255.39
1.5805143 -6.0633492 -2.1172538 255.39
1.7100756 -6.5603871 -2.1155064 255.39
1.8650559 -7.1549401 -2.1202025 255.39
1.9355302 -7.425302 -2.0087905 255.39
2.1049151 -8.0751152 -1.9772762 255.39
2.1198719 -8.132494 -1.7863772 255.39
2.1842923 -8.379631 -1.6315602 255.39
2.4707112 -9.5880413 -1.6267172 255.55
4.0954089 -15.892973 -1.9192741 255.55
5.1698747 -20.062632 -1.9328954 255.55
7.6239934 -29.586281 -1.4248006 255.55
1.3504887 -5.2408152 -2.1133237 255.55
1.448656 -5.6217709 -2.1130004 255.55
1.564049 -6.0695744 -2.1178939 255.55
1.6931781 -6.5706835 -2.1172936 255.55
1.8441088 -7.1563973 -2.1191001 255.55
1.9331337 -7.5018744 -2.0280375 255.55
2.0949831 -8.1299601 -1.9892653 255.55
2.0995941 -8.1478548 -1.7884563 255.55
2.2001188 -8.5379581 -1.6611845 255.55
2.4736569 -9.7258158 -1.6487657 255.73
2.433605 -9.5683413 -1.3875558 255.73
4.0371356 -15.873033 -1.915325 255.73
4.896245 -19.250843 -1.8531941 255.73
6.2274394 -24.484776 -1.7666525 255.73
7.4906268 -29.451321 -1.417161 255.73
11.462221 -45.066662 -1.0796269 255.73
1.3344767 -5.2468376 -2.1140511 255.73
1.4309875 -5.6262941 -2.1130004 255.73
1.5454402 -6.0762944 -2.1185343 255.73
1.6701744 -6.5667186 -2.114315 255.73
1.8220912 -7.1640186 -2.1196513 255.73
1.9233869 -7.5622888 -2.0427263 255.73
2.0694318 -8.1365013 -1.9892653 255.73
2.1005082 -8.258687 -1.8113266 255.73
2.1345284 -8.3924456 -1.6315602 255.73
2.4387896 -9.7020617 -1.6435778 255.89
2.4044614 -9.5654964 -1.3861641 255.89
2.6489487 -10.538122 -1.2706887 255.89
4.8347001 -19.23354 -1.8502215 255.89
6.0938659 -24.242788 -1.7479577 255.89
7.4453692 -29.619377 -1.4242417 255.89
11.380197 -45.273018 -1.0838048 255.89
1.3193655 -5.2487369 -2.1133237 255.89
1.4157286 -5.632091 -2.1136844 255.89
1.5275421 -6.076911 -2.1172538 255.89
1.6513647 -6.5695052 -2.1137192 255.89
1.8030157 -7.1728077 -2.1207538 255.89
1.9263169 -7.6633282 -2.0685577 255.89
2.0405347 -8.117713 -1.9832708 255.89
2.0287921 -8.0709982 -1.7689127 255.89
2.0957515 -8.3373775 -1.6197106 255.89
2.3945198 -9.6541262 -1.6341748 256.07001
2.4015756 -9.6825733 -1.4020299 256.07001
3.4044037 -13.725734 -1.6537536 256.07001
4.782402 -19.281492 -1.8533798 256.07001
6.0368872 -24.339272 -1.7535383 256.07001
7.0305252 -28.345381 -1.3619131 256.07001
1.3028696 -5.2528558 -2.1133237 256.07001
1.3984803 -5.6383352 -2.1143684 256.07001
1.5084435 -6.0816798 -2.1172538 256.07001
1.6320968 -6.5802202 -2.1155064 256.07001
1.7790844 -7.1728387 -2.1191001 256.07001
1.921795 -7.7482138 -2.0898309 256.07001
2.0150223 -8.1240835 -1.9832708 256.07001
1.9930656 -8.0355597 -1.7597646 256.07001
2.131531 -8.5938187 -1.6682204 256.07001
2.4128067 -9.8528786 -1.6665989 256.23999
2.4105227 -9.8435516 -1.4242976 256.23999
3.3164146 -13.54283 -1.6305234 256.23999
5.0079432 -20.450315 -1.9642929 256.23999
5.9855247 -24.442343 -1.7596768 256.23999
7.2856808 -29.751627 -1.4284343 256.23999
11.424447 -46.652592 -1.1151394 256.23999
1.2886077 -5.2621269 -2.1155062 256.23999
1.3812978 -5.6406341 -2.1136844 256.23999
1.4908428 -6.0879693 -2.1178939 256.23999
1.6134739 -6.5887427 -2.116698 256.23999
1.7600808 -7.1874228 -2.1218565 256.23999
1.9204267 -7.8422074 -2.1136365 256.23999
1.9927603 -8.1375875 -1.9851153 256.23999
1.9631658 -8.016736 -1.7543589 256.23999
2.0321605 -8.298481 -1.6097124 256.23999
2.4003768 -9.9371443 -1.6795685 256.42001
2.3819118 -9.8607016 -1.4256892 256.42001
4.8127513 -19.923956 -1.9122734 256.42001
5.9054284 -24.447451 -1.7587003 256.42001
7.0992966 -29.389858 -1.4099872 256.42001
11.323367 -46.876778 -1.1196423 256.42001
1.2707577 -5.2607164 -2.1133237 256.42001
1.3640118 -5.6467729 -2.1143684 256.42001
1.4712647 -6.0907807 -2.1172538 256.42001
1.5918702 -6.5900674 -2.1155064 256.42001
1.7379435 -7.1947856 -2.1224077 256.42001
1.9039576 -7.8820548 -2.1227536 256.42001
1.9694703 -8.153266 -1.9874208 256.42001
2.02249 -8.3727589 -1.8308704 256.42001
2.0037727 -8.2952719 -1.6078608 256.42001
2.2225876 -9.3222294 -1.5745144 256.59
2.3687203 -9.9351549 -1.4354314 256.59
3.272784 -13.727081 -1.6502692 256.59
5.0413346 -21.144936 -2.0280168 256.59
5.8263874 -24.437695 -1.756747 256.59
7.0741501 -29.671204 -1.4224715 256.59
11.266308 -47.254425 -1.1278589 256.59
1.2560073 -5.2680883 -2.1147785 256.59
1.3463798 -5.6471386 -2.1130004 256.59
1.4509894 -6.0859041 -2.1140525 256.59
1.5718673 -6.5929041 -2.1149106 256.59
1.7161428 -7.1980405 -2.1218565 256.59
1.8823576 -7.8951974 -2.1247797 256.59
1.9461731 -8.1628599 -1.9883431 256.59
2.0094349 -8.4281998 -1.8416817 256.59
1.9805187 -8.3069162 -1.6089717 256.59
2.3836372 -10.122945 -1.4615959 256.75
3.2626665 -13.85605 -1.6646718 256.75
5.0639658 -21.505896 -2.0612721 256.75
6.6484542 -28.234976 -2.0283787 256.75
7.0219445 -29.821133 -1.4287137 256.75
11.003238 -46.72908 -1.1145823 256.75
1.2408642 -5.2697616 -2.1140511 256.75
1.331897 -5.6563644 -2.1150525 256.75
1.4365944 -6.1009979 -2.1178939 256.75
1.5543256 -6.6009846 -2.1161022 256.75
1.7000011 -7.2196465 -2.1268179 256.75
1.8598592 -7.89854 -2.1242731 256.75
1.9336298 -8.211832 -1.9989488 256.75
1.9827524 -8.4204483 -1.838771 256.75
2.0104699 -8.5381603 -1.6526676 256.75
2.305187 -9.9373722 -1.6760019 256.94
3.2014382 -13.801 -1.6567736 256.94
5.0110717 -21.602102 -2.0688891 256.94
6.314939 -27.222914 -1.9541578 256.94
6.9446855 -29.93767 -1.4331857 256.94
11.20109 -48.286499 -1.1508377 256.94
1.2238032 -5.2756624 -2.1147785 256.94
1.3122832 -5.6570888 -2.1136844 256.94
1.4163548 -6.1057286 -2.1178939 256.94
1.5324274 -6.6061029 -2.1161022 256.94
1.6756161 -7.2233715 -2.1262665 256.94
1.8336565 -7.904664 -2.1242731 256.94
1.9274964 -8.3091965 -2.0210824 256.94
1.9716167 -8.4993935 -1.8545723 256.94
2.0407701 -8.7975044 -1.7015477 256.94
2.0848882 -9.1030998 -1.5343086 257.10001
2.656909 -11.600674 -1.6725823 257.10001
3.1389382 -13.705324 -1.6442293 257.10001
4.3167715 -18.848013 -1.8039614 257.10001
8.504178 -37.131191 -1.7764124 257.10001
1.2078183 -5.2736115 -2.1125963 257.10001
1.2964805 -5.6607308 -2.1136844 257.10001
1.3997219 -6.1115069 -2.1185343 257.10001
1.5148262 -6.6140785 -2.1172936 257.10001
1.6537213 -7.2205267 -2.1240613 257.10001
1.8120073 -7.9116397 -2.1247797 257.10001
1.9238365 -8.3999109 -2.0418329 257.10001
1.9465641 -8.4991455 -1.8533248 257.10001
2.0157561 -8.8012533 -1.7011775 257.10001
4.2450323 -18.790812 -1.7972732 257.26999
6.4556789 -28.576334 -2.0486081 257.26999
8.8936377 -39.368057 -1.8821567 257.26999
10.9413 -48.432125 -1.1527873 257.26999
1.1921659 -5.2771716 -2.1125963 257.26999
1.2800932 -5.6663861 -2.1143684 257.26999
1.3820001 -6.1174812 -2.1191745 257.26999
1.4939331 -6.612957 -2.1155064 257.26999
1.6331377 -7.2291522 -2.125164 257.26999
1.7898041 -7.9226427 -2.1262991 257.26999
1.9199182 -8.4985981 -2.0644276 257.26999
1.920907 -8.5029755 -1.852909 257.26999
1.903881 -8.4276085 -1.6278572 257.26999
2.2076511 -9.9089527 -1.6678959 257.44
2.5815625 -11.587238 -1.6684071 257.44
3.0968647 -13.900152 -1.6653687 257.44
4.2537837 -19.092936 -1.824955 257.44
6.396461 -28.710258 -2.0568395 257.44
8.8732395 -39.827175 -1.9028398 257.44
11.905438 -53.43708 -1.2710695 257.44
1.176908 -5.2825041 -2.1133237 257.44
11.110997 -49.871262 0 257.44
1.2636838 -5.6719937 -2.1150525 257.44
1.3638431 -6.1215549 -2.1191745 257.44
1.4734751 -6.6136336 -2.114315 257.44
1.6116812 -7.2339659 -2.125164 257.44
1.7662894 -7.9279184 -2.1262991 257.44
1.9167006 -8.6030331 -2.0884058 257.44
2.0292516 -9.1082134 -1.9834775 257.44
1.8630534 -8.3622398 -1.614156 257.44
2.2128983 -10.081617 -1.6957806 257.62
2.2980208 -10.469422 -1.5064096 257.62
2.297658 -10.46777 -1.253266 257.62
2.2883704 -10.425456 -0.99580157 257.62
2.2927094 -10.445224 -0.74778938 257.62
8.1419973 -37.093662 -1.7710087 257.62
11.775655 -53.648033 -1.2752011 257.62
1.1603068 -5.2861753 -2.1133237 257.62
1.2458586 -5.6759357 -2.1150525 257.62
1.3450112 -6.1276598 -2.1198146 257.62
1.4547372 -6.6275539 -2.1172936 257.62
1.5893593 -7.2408714 -2.1257153 257.62
1.7409595 -7.9315386 -2.1257927 257.62
1.910943 -8.7059565 -2.1119227 257.62
2.0044022 -9.1317406 -1.9872199 257.62
2.0415618 -9.3010349 -1.7941238 257.62
2.251281 -10.412587 -1.7502531 257.79999
2.258004 -10.443682 -1.5016778 257.79999
2.2559457 -10.434162 -1.2483877 257.79999
1.1448752 -5.2952576 -2.1155062 257.79999
1.2280209 -5.6798215 -2.1150525 257.79999
1.3253536 -6.130003 -2.1191745 257.79999
2.2620981 -10.462618 0.49918801 257.79999
1.4339089 -6.6320915 -2.1172936 257.79999
2.262413 -10.464075 0.74862647 257.79999
1.5670099 -7.2477078 -2.1262665 257.79999
2.2673898 -10.487093 1.0010035 257.79999
1.7160333 -7.9369688 -2.1257927 257.79999
2.2626624 -10.465228 1.2521045 257.79999
1.8979774 -8.7784929 -2.128062 257.79999
1.9785979 -9.1513777 -1.9901307 257.79999
2.2232556 -10.432732 -1.7525228 257.97
2.2249429 -10.44065 -1.500286 257.97
2.2216649 -10.425267 -1.2465293 257.97
2.2235498 -10.434113 -0.497511 257.97
1.1287705 -5.2968087 -2.1147785 257.97
2.2268002 -10.449365 0 257.97
1.2115549 -5.6852784 -2.1157367 257.97
1.3071597 -6.1339083 -2.1191745 257.97
1.4142249 -6.6363168 -2.1172936 257.97
1.5450979 -7.2504449 -2.1257153 257.97
1.6944927 -7.9514866 -2.1283252 257.97
1.8780069 -8.8126364 -2.1349788 257.97
1.9530675 -9.1648617 -1.991794 257.97
2.1939137 -10.447008 -1.7538197 258.14001
2.1780806 -10.371614 -1.4894305 258.14001
2.1907227 -10.431813 -1.2465293 258.14001
2.1940684 -10.447744 -0.99598736 258.14001
2.194948 -10.451933 -0.74681282 258.14001
2.1913497 -10.434798 -0.49723148 258.14001
2.1980715 -10.466806 -0.24830908 258.14001
1.1134325 -5.3019581 -2.1155062 258.14001
1.1939085 -5.6851697 -2.1143684 258.14001
2.1927292 -10.441368 0.24770559 258.14001
1.2889543 -6.1377597 -2.1191745 258.14001
2.1954558 -10.45435 0.49816316 258.14001
1.3945283 -6.6404834 -2.1172936 258.14001
2.1928978 -10.44217 0.74611527 258.14001
1.5239738 -7.2568789 -2.1262665 258.14001
2.1940684 -10.447744 0.99598736 258.14001
1.6728809 -7.9659472 -2.1308577 258.14001
2.1923559 -10.43959 1.2474585 258.14001
1.8494513 -8.8067417 -2.1322122 258.14001
1.931093 -9.1955051 -1.9971997 258.14001
2.1951306 -10.452803 1.7547925 258.14001
2.1681056 -10.478596 -1.7580348 258.31
2.1577313 -10.428456 -1.4966675 258.31
2.1657987 -10.467446 -1.2500138 258.31
2.165077 -10.463959 -0.99691623 258.31
2.167161 -10.47403 -0.74792892 258.31
2.163213 -10.454949 -0.49788368 258.31
2.1657908 -10.467408 -0.24816981 258.31
1.0969415 -5.3015895 -2.1140511 258.31
2.1663744 -10.470228 0 258.31
1.177035 -5.6886868 -2.1143684 258.31
2.1653857 -10.46545 0.24812339 258.31
1.2715054 -6.145268 -2.120455 258.31
2.1636178 -10.456905 0.49797684 258.31
1.3748195 -6.6445918 -2.1172936 258.31
2.1631184 -10.454493 0.74653381 258.31
1.5016564 -7.2576032 -2.125164 258.31
2.1642702 -10.460058 0.99654466 258.31
1.6480621 -7.9651914 -2.1293383 258.31
2.1625788 -10.451884 1.2481554 258.31
1.8260733 -8.825531 -2.1354399 258.31
2.1633494 -10.455608 1.5005643 258.31
1.9236199 -9.2969799 -2.0179908 258.31
2.163707 -10.457337 1.7544682 258.31
1.9134771 -9.2479591 -1.7793117 258.31
2.1611738 -10.445094 2.0096409 258.31
2.3720105 -11.638008 -1.6692421 258.48001
2.8206546 -13.839231 -1.6516629 258.48001
2.1416526 -10.507783 -0.7498821 258.48001
2.1441526 -10.520049 -0.50067866 258.48001
2.1407135 -10.503176 -0.24886614 258.48001
1.0815786 -5.3066463 -2.1147785 258.48001
2.1412904 -10.506006 0 258.48001
1.1609019 -5.695837 -2.1157367 258.48001
2.1383176 -10.491421 0.24858761 258.48001
1.2525096 -6.1453004 -2.1191745 258.48001
2.1381679 -10.490685 0.49928117 258.48001
1.3539547 -6.6430297 -2.1155064 258.48001
2.1364727 -10.482368 0.74806845 258.48001
1.4812679 -7.2676783 -2.1268179 258.48001
2.1379974 -10.489848 0.99877411 258.48001
1.6248081 -7.9719419 -2.1298447 258.48001
2.1339383 -10.469934 1.2495493 258.48001
1.7998794 -8.8309097 -2.1354399 258.48001
2.1335042 -10.467803 1.5013994 258.48001
1.9175148 -9.4080753 -2.0408611 258.48001
2.1346407 -10.47338 1.7560894 258.48001
1.8958423 -9.3017416 -1.7885692 258.48001
2.1325283 -10.463016 2.0118628 258.48001
2.2165926 -11.052798 -1.8520647 258.66
2.2836421 -11.387134 -1.6322222 258.66
3.3098652 -16.504284 -1.570431 258.66
4.83004 -24.084469 -1.7176834 258.66
1.063803 -5.3045382 -2.1125963 258.66
1.1426326 -5.6976137 -2.1150525 258.66
1.2339425 -6.1529207 -2.120455 258.66
1.3345799 -6.6547384 -2.1178894 258.66
1.4588066 -7.2741809 -2.1273692 258.66
2.1077728 -10.51018 1.0000746 258.66
1.5997555 -7.9770074 -2.1298447 258.66
2.1147065 -10.544754 1.2576797 258.66
1.7717447 -8.8346128 -2.1349788 258.66
2.1076179 -10.509408 1.5064096 258.66
1.9110291 -9.5291386 -2.0658104 258.66
2.1079361 -10.510994 1.7612773 258.66
1.8689295 -9.3192139 -1.790791 258.66
2.1081493 -10.512058 2.0200093 258.66
2.2002594 -11.132517 -1.864386 258.82001
2.2007611 -11.135054 -1.5952021 258.82001
4.7314305 -23.939325 -1.7063829 258.82001
7.2607298 -36.73666 -1.7463195 258.82001
10.687158 -54.073143 -1.279704 258.82001
1.0489858 -5.307488 -2.1125963 258.82001
1.1259886 -5.6970944 -2.1136844 258.82001
1.2138165 -6.1414719 -2.1153331 258.82001
1.3163614 -6.6603122 -2.1184852 258.82001
1.4384876 -7.2782264 -2.1273692 258.82001
1.5789739 -7.9890356 -2.1318707 258.82001
1.7485763 -8.8471632 -2.1368232 258.82001
1.9090664 -9.6591845 -2.092839 258.82001
1.8577602 -9.3995934 -1.8052329 258.82001
2.1385386 -11.001827 -1.8413649 259
2.6684067 -13.727762 -1.6354018 259
2.9082747 -14.961776 -1.4219898 259
4.907454 -25.246662 -1.7984614 259
7.0968695 -36.510227 -1.7344873 259
1.0326622 -5.3125863 -2.1133237 259
1.1088023 -5.7042937 -2.1150525 259
1.1974089 -6.1601348 -2.120455 259
1.2950667 -6.6625404 -2.1178894 259
1.4148817 -7.278935 -2.1262665 259
1.5531294 -7.9901586 -2.1308577 259
1.7218876 -8.8583441 -2.1382065 259
1.9022284 -9.7861166 -2.119036 259
2.1032903 -10.994555 -1.8390951 259.17001
2.3474216 -12.270705 -1.7558079 259.17001
2.3417561 -12.241091 -1.457459 259.17001
2.8934286 -15.124854 -1.4366666 259.17001
5.4285769 -28.376865 -2.020287 259.17001
6.9986458 -36.584106 -1.7370028 259.17001
1.0179451 -5.3211164 -2.1155062 259.17001
1.0915194 -5.7057123 -2.1143684 259.17001
1.1787702 -6.1617994 -2.1198146 259.17001
1.2760103 -6.670104 -2.119081 259.17001
1.3943621 -7.2887659 -2.1279204 259.17001
1.5308695 -8.0023327 -2.1328838 259.17001
1.6970595 -8.8710594 -2.1400511 259.17001
1.8856817 -9.8570471 -2.1331739 259.17001
1.9886469 -10.395278 -1.9940881 259.17001
2.1228642 -11.278093 -1.8854616 259.34
4.759397 -25.285143 -1.7991589 259.34
6.8789811 -36.545807 -1.7342079 259.34
0.93674111 -4.9766035 -2.1152012 259.34
1.0018078 -5.3222823 -2.1147785 259.34
1.0749331 -5.710773 -2.1150525 259.34
1.1601321 -6.1634078 -2.1191745 259.34
1.2551546 -6.668232 -2.1172936 259.34
1.3727298 -7.292871 -2.1279204 259.34
1.5067616 -8.0049381 -2.1323771 259.34
1.6718111 -8.881793 -2.1414344 259.34
1.8582364 -9.8722115 -2.135253 259.34
1.959249 -10.408858 -1.9955692 259.34
2.1114738 -11.414728 -1.9071858 259.51999
2.774179 -14.997345 -1.4229187 259.51999
4.7122359 -25.474573 -1.8115757 259.51999
7.4124222 -40.071911 -1.9004174 259.51999
0.92043072 -4.9758925 -2.1136594 259.51999
0.98542136 -5.3272352 -2.1155062 259.51999
1.0569869 -5.7141218 -2.1150525 259.51999
1.1414527 -6.1707482 -2.120455 259.51999
1.2335051 -6.6683874 -2.1161022 259.51999
1.3487628 -7.2914762 -2.1262665 259.51999
1.4798462 -8.0001202 -2.1298447 259.51999
1.6446078 -8.8908291 -2.1423566 259.51999
1.8272128 -9.8780003 -2.135253 259.51999
1.9290414 -10.428491 -1.9981614 259.51999
2.0693367 -11.364273 -1.8977828 259.67999
2.2593946 -12.408024 -1.7725086 259.67999
2.5209563 -13.844455 -1.6456231 259.67999
3.2103221 -17.630278 -1.671869 259.67999
4.6264253 -25.407156 -1.8058556 259.67999
7.5406442 -41.411312 -1.9629325 259.67999
0.90553999 -4.9729967 -2.111347 259.67999
0.96987361 -5.3263006 -2.1140511 259.67999
1.0413626 -5.7189002 -2.1157367 259.67999
1.1248952 -6.17764 -2.1217353 259.67999
1.2152207 -6.6736846 -2.116698 259.67999
1.3290848 -7.2989969 -2.1273692 259.67999
1.459233 -8.0137386 -2.1323771 259.67999
1.618379 -8.8877287 -2.1405122 259.67999
1.8006725 -9.8888378 -2.1365006 259.67999
1.9122355 -10.501513 -2.011122 259.67999
2.0318873 -11.361005 -1.8961616 259.85999
2.1928568 -12.261042 -1.7505193 259.85999
2.2232006 -12.430704 -1.47674 259.85999
3.153517 -17.632435 -1.6711259 259.85999
4.5630922 -25.513872 -1.8124127 259.85999
0.89121205 -4.9830837 -2.1144302 259.85999
0.95313579 -5.3293214 -2.1140511 259.85999
1.0227293 -5.7184434 -2.1143684 259.85999
1.1048149 -6.177413 -2.120455 259.85999
1.1955932 -6.6849866 -2.119081 259.85999
1.3064862 -7.3050289 -2.1279204 259.85999
1.4343905 -8.0201883 -2.1328838 259.85999
1.5907921 -8.8946848 -2.1409733 259.85999
1.7699414 -9.8963718 -2.1369164 259.85999
1.9065702 -10.660312 -2.0403762 259.85999
2.0097868 -11.43307 -1.9071858 260.03
2.1684692 -12.335766 -1.7602614 260.03
2.5226662 -14.350686 -1.3593806 260.03
4.5384936 -25.818119 -1.8330606 260.03
7.4539104 -42.403046 -2.0077457 260.03
0.87802058 -4.9947939 -2.1182845 260.03
0.93731922 -5.3321257 -2.1140511 260.03
1.006734 -5.7270055 -2.1164207 260.03
1.0864813 -6.1806636 -2.120455 260.03
1.1747615 -6.6828637 -2.1172936 260.03
1.2838075 -7.3031926 -2.1262665 260.03
1.4109229 -8.0263138 -2.1333902 260.03
1.5654049 -8.9051151 -2.1423566 260.03
1.7412479 -9.9054337 -2.137748 260.03
1.9031751 -10.826589 -2.0711114 260.03
1.9601003 -11.359591 -1.8938918 260.20999
2.1576562 -12.504508 -1.7833641 260.20999
5.2403426 -30.369949 -2.1550565 260.20999
6.5128403 -37.744598 -1.7861949 260.20999
0.86169708 -4.9938903 -2.1167428 260.20999
0.92151356 -5.3405519 -2.1162336 260.20999
0.98841763 -5.7282882 -2.1157367 260.20999
1.0677032 -6.1877809 -2.1217353 260.20999
1.1547348 -6.6921654 -2.119081 260.20999
1.2621651 -7.3147678 -2.1284716 260.20999
1.3850425 -8.0268936 -2.1323771 260.20999
1.5364282 -8.9042358 -2.1409733 260.20999
1.7111185 -9.9166384 -2.1389954 260.20999
1.8975596 -10.997142 -2.1025872 260.20999
1.929031 -11.368912 -1.8945403 260.37
2.1101387 -12.436285 -1.772787 260.37
2.2387421 -13.19422 -1.5650145 260.37
2.3971558 -14.127845 -1.3369007 260.37
4.7940564 -28.254189 -2.0039639 260.37
6.4064097 -37.756729 -1.7859154 260.37
0.84743947 -4.9944577 -2.115972 260.37
0.90659636 -5.3431044 -2.1162336 260.37
0.97273177 -5.7328787 -2.1164207 260.37
1.0501026 -6.1888704 -2.1210952 260.37
1.1354036 -6.6915994 -2.1178894 260.37
1.2414119 -7.3163686 -2.1279204 260.37
1.3616509 -8.0250072 -2.1308577 260.37
1.5122081 -8.9123287 -2.1418955 260.37
1.6850557 -9.9310217 -2.1410747 260.37
1.892159 -11.151603 -2.1311007 260.37
1.9251324 -11.553681 -1.9243705 260.54001
2.0527225 -12.319414 -1.7552512 260.54001
2.3598924 -14.162893 -1.6790745 260.54001
2.367337 -14.207573 -1.3437747 260.54001
4.8997397 -29.405788 -2.0846024 260.54001
6.4519687 -38.721489 -1.8306355 260.54001
0.83170694 -4.9914889 -2.1136594 260.54001
0.88982046 -5.3402576 -2.1140511 260.54001
0.95540881 -5.7338858 -2.1157367 260.54001
1.0314238 -6.1900897 -2.120455 260.54001
1.1161718 -6.6987052 -2.119081 260.54001
1.2203304 -7.3238125 -2.1290228 260.54001
1.3394243 -8.0385551 -2.1333902 260.54001
1.4863977 -8.9206161 -2.1428177 260.54001
1.6581546 -9.9514151 -2.1444011 260.54001
1.8684312 -11.21339 -2.1418395 260.54001
1.8859617 -11.542144 -1.9214524 260.72
2.0334921 -12.445034 -1.7722303 260.72
2.315707 -14.172198 -1.6793067 260.72
3.0034742 -18.381355 -1.7376366 260.72
4.8018656 -29.387564 -2.0822308 260.72
7.0928626 -43.408535 -2.0511615 260.72
0.81602162 -4.9940772 -2.1136594 260.72
0.87454134 -5.3522196 -2.1176884 260.72
0.93739063 -5.7368593 -2.1157367 260.72
