# .PCD v0.7 - Point Cloud Data file format
VERSION 0.7
FIELDS x y z intensity
SIZE 4 4 4 4
TYPE F F F F
COUNT 1 1 1 1
WIDTH 1152
HEIGHT 1
VIEWPOINT 0 0 0 1 0 0 0
POINTS 1152
DATA ascii
-3.5550289 -9.3243465 -2.121115 290.87
-4.0225253 -10.550525 -2.1273975 290.87
-4.7125015 -12.250916 -2.156527 291.04001
-5.6052179 -14.571677 -2.1942031 291.04001
-7.0112653 -18.226927 -2.2837551 291.04001
-9.1068363 -23.674706 -2.3665149 291.04001
-12.42262 -32.294624 -2.4195731 291.04001
-1.6950045 -4.4064403 -2.102015 291.04001
-1.8061483 -4.6953769 -2.101326 291.04001
-1.9343264 -5.0285964 -2.1038663 291.04001
-2.0734644 -5.3903084 -2.1020558 291.04001
-2.2346363 -5.8093014 -2.1031687 291.04001
-2.4182458 -6.286624 -2.1018043 291.04001
-2.6387248 -6.8597956 -2.1075232 291.04001
-2.8959188 -7.5284128 -2.1116107 291.04001
-3.2132938 -8.3534813 -2.1206841 291.04001
-3.5805719 -9.30828 -2.1198676 291.04001
-4.0516944 -10.53304 -2.1262867 291.04001
-4.7431078 -12.215813 -2.1529605 291.22
-5.6524019 -14.557688 -2.1947598 291.22
-7.0720873 -18.214069 -2.2849166 291.22
-9.1934214 -23.677538 -2.3696733 291.22
-12.505961 -32.208942 -2.4160852 291.22
-1.708178 -4.3993902 -2.1012015 291.22
-1.8188864 -4.6845183 -2.0990133 291.22
-1.9480916 -5.0172849 -2.1016841 291.22
-2.0903883 -5.3837676 -2.1020558 291.22
-2.2542474 -5.8057852 -2.104449 291.22
-2.437984 -6.278996 -2.1018043 291.22
-2.6602626 -6.8514719 -2.1075232 291.22
-2.9195557 -7.519278 -2.1116107 291.22
-3.2388167 -8.3415308 -2.120223 291.22
-3.6105051 -9.2988091 -2.1202834 291.22
-4.0883217 -10.52942 -2.1281381 291.22
-4.7735739 -12.186985 -2.1503665 291.39001
-5.699182 -14.550074 -2.1961515 291.39001
-7.1289964 -18.200405 -2.2858458 291.39001
-9.2832422 -23.700218 -2.3746893 291.39001
-12.601472 -32.171696 -2.4160852 291.39001
-1.7205573 -4.3926015 -2.1003881 291.39001
-1.8334507 -4.680819 -2.0997841 291.39001
-1.9636492 -5.0132174 -2.1024115 291.39001
-2.1070383 -5.3792915 -2.1027398 291.39001
-2.2707725 -5.7973065 -2.1038089 291.39001
-2.4579959 -6.27529 -2.1029956 291.39001
-2.6777749 -6.8363881 -2.1053181 291.39001
-2.941853 -7.5105824 -2.1116107 291.39001
-3.264972 -8.3355083 -2.1211452 291.39001
-3.6380794 -9.2880554 -2.1202834 291.39001
-4.1188283 -10.515413 -2.1277678 291.39001
-4.8140635 -12.183781 -2.152312 291.56
-5.7423282 -14.5331 -2.1961515 291.56
-7.1888065 -18.193953 -2.2877042 291.56
-9.367425 -23.707758 -2.3782194 291.56
-12.680742 -32.093342 -2.4130158 291.56
-1.7329115 -4.385778 -2.0995746 291.56
-1.8466526 -4.6736422 -2.0990133 291.56
-1.9805688 -5.012567 -2.104594 291.56
-2.1229897 -5.3730164 -2.1027398 291.56
-2.2879634 -5.7905436 -2.1038089 291.56
-2.4759026 -6.2661939 -2.1024001 291.56
-2.69946 -6.8319888 -2.1064208 291.56
-2.9641242 -7.5018206 -2.1116107 291.56
-3.2868288 -8.3185444 -2.1193008 291.56
-3.6649027 -9.2754011 -2.1198676 291.56
-4.1500101 -10.503146 -2.1277678 291.56
-4.8567686 -12.185944 -2.15523 291.73001
-5.7942224 -14.538075 -2.1994917 291.73001
-7.2493763 -18.18915 -2.2897949 291.73001
-9.4723778 -23.766804 -2.3869512 291.73001
-12.791421 -32.094498 -2.4159458 291.73001
-1.747946 -4.3857088 -2.102015 291.73001
-1.8625612 -4.6732855 -2.101326 291.73001
-1.9961224 -5.008399 -2.1053214 291.73001
-2.1389225 -5.3666935 -2.1027398 291.73001
-2.3058357 -5.7854896 -2.104449 291.73001
-2.4930701 -6.2552729 -2.1012084 291.73001
-2.7190073 -6.8221636 -2.1058693 291.73001
-2.9870858 -7.4947901 -2.1121171 291.73001
-3.314378 -8.3159866 -2.1211452 291.73001
-3.6938558 -9.2681208 -2.1206992 291.73001
-4.1811552 -10.490787 -2.1277678 291.73001
-4.8957639 -12.172457 -2.1555543 291.91
-5.8428226 -14.527151 -2.2006052 291.91
-7.3094482 -18.173658 -2.290724 291.91
-9.54774 -23.738775 -2.3871369 291.91
-12.891441 -32.052303 -2.4158063 291.91
-1.7610338 -4.3785009 -2.1012015 291.91
-1.876545 -4.665699 -2.1005552 291.91
-2.0104566 -4.9986463 -2.1038663 291.91
-2.1557717 -5.3599477 -2.1027398 291.91
-2.3239999 -5.7782173 -2.104449 291.91
-2.5148466 -6.2527237 -2.1029956 291.91
-2.7418609 -6.8171549 -2.106972 291.91
-3.0084507 -7.4799838 -2.1105976 291.91
-3.3383086 -8.3001165 -2.1197619 291.91
-3.7214942 -9.252841 -2.1198676 291.91
-4.2162924 -10.48307 -2.1288788 291.91
-4.9319615 -12.164225 -2.156527 292.07001
-5.8878322 -14.521791 -2.202275 292.07001
-7.3661413 -18.167902 -2.2925825 292.07001
-9.6274614 -23.745237 -2.390481 292.07001
-12.967404 -31.982897 -2.413295 292.07001
-1.774627 -4.3769522 -2.1028285 292.07001
-1.8895667 -4.6604404 -2.1005552 292.07001
-2.0251074 -4.9947391 -2.104594 292.07001
-2.1721435 -5.3573899 -2.1041079 292.07001
-2.3408387 -5.7734609 -2.1050894 292.07001
-2.533015 -6.2474461 -2.1035914 292.07001
-2.762332 -6.813035 -2.1080744 292.07001
-3.030781 -7.4751396 -2.1116107 292.07001
-3.3614738 -8.2907619 -2.1197619 292.07001
-3.7465832 -9.2405996 -2.1194518 292.07001
-4.2440734 -10.467612 -2.1281381 292.07001
-4.9708996 -12.150496 -2.1568513 292.25
-5.9356742 -14.50872 -2.2031102 292.25
-7.4307027 -18.163057 -2.2949054 292.25
-9.7103062 -23.735149 -2.3925247 292.25
-13.064795 -31.934614 -2.4127369 292.25
-1.7849096 -4.3629003 -2.0987611 292.25
-1.9021022 -4.6493573 -2.0982425 292.25
-2.0386727 -4.9831796 -2.1024115 292.25
-2.1854053 -5.3418422 -2.1006877 292.25
-2.3582475 -5.7643247 -2.104449 292.25
-2.5490148 -6.2306223 -2.1006126 292.25
-2.7808104 -6.7972059 -2.1058693 292.25
-3.0549824 -7.4673719 -2.1121171 292.25
-3.3889771 -8.2837639 -2.1206841 292.25
-3.7748542 -9.2269726 -2.119036 292.25
-4.2784257 -10.457866 -2.1288788 292.25
-4.9986491 -12.115626 -2.1532848 292.42001
-5.9832287 -14.50203 -2.2047803 292.42001
-7.4875913 -18.148275 -2.2958348 292.42001
-9.8095474 -23.776186 -2.3995845 292.42001
-13.157968 -31.892021 -2.4124579 292.42001
-1.8013309 -4.3660302 -2.1028285 292.42001
-1.9172964 -4.6471047 -2.0997841 292.42001
-2.0562911 -4.9839978 -2.1053214 292.42001
-2.2033956 -5.3405466 -2.1027398 292.42001
-2.3746176 -5.7555509 -2.1038089 292.42001
-2.5689466 -6.2265615 -2.1018043 292.42001
-2.8002326 -6.787148 -2.1053181 292.42001
-3.0756493 -7.4546976 -2.111104 292.42001
-3.4135406 -8.2736721 -2.1206841 292.42001
-3.8014684 -9.2139235 -2.1186202 292.42001
-4.3101854 -10.446942 -2.1292491 292.42001
-5.0391235 -12.111674 -2.15523 292.59
-6.0292735 -14.491529 -2.2058938 292.59
-7.5536141 -18.155323 -2.2995515 292.59
-9.8991728 -23.79294 -2.4042292 292.59
-13.253302 -31.854681 -2.4125974 292.59
-1.815681 -4.3640399 -2.1044555 292.59
-1.9303674 -4.6396918 -2.0990133 292.59
-2.0682073 -4.9709945 -2.1024115 292.59
-2.2177877 -5.3305149 -2.1013718 292.59
-2.3924119 -5.7502294 -2.104449 292.59
-2.585943 -6.2153864 -2.1006126 292.59
-2.8210967 -6.7805848 -2.1058693 292.59
-3.0977542 -7.445539 -2.111104 292.59
-3.4365788 -8.2599134 -2.1197619 292.59
-3.8302929 -9.2062159 -2.1194518 292.59
-4.3419185 -10.435923 -2.1296194 292.59
-5.083436 -12.116688 -2.1587968 292.76001
-6.0760756 -14.482707 -2.2072854 292.76001
-7.6097546 -18.138327 -2.3002484 292.76001
-9.9797392 -23.787334 -2.4066443 292.76001
-13.329233 -31.771065 -2.4092491 292.76001
-1.8236734 -4.3468399 -2.0987611 292.76001
-1.9441251 -4.633944 -2.0990133 292.76001
-2.0851097 -4.9699898 -2.104594 292.76001
-2.2343211 -5.3256445 -2.1020558 292.76001
-2.4094627 -5.7431054 -2.104449 292.76001
-2.6051116 -6.2094469 -2.1012084 292.76001
-2.8412025 -6.7721844 -2.1058693 292.76001
-3.1190834 -7.4345312 -2.1105976 292.76001
-3.4625771 -8.2532701 -2.1206841 292.76001
-3.8575914 -9.1948109 -2.1194518 292.76001
-4.3713422 -10.419369 -2.1288788 292.76001
-5.1224399 -12.108823 -2.1600938 292.92999
-6.120563 -14.468264 -2.2078421 292.92999
-7.6705036 -18.132133 -2.3023391 292.92999
-10.071221 -23.807138 -2.4116604 292.92999
-13.430437 -31.747913 -2.4105048 292.92999
-1.8372746 -4.3430924 -2.0995746 292.92999
-1.9564276 -4.6247559 -2.0974717 292.92999
-2.0991209 -4.9620652 -2.1038663 292.92999
-2.247916 -5.3137989 -2.1000037 292.92999
-2.4264922 -5.7359309 -2.104449 292.92999
-2.6220362 -6.1981735 -2.1000168 292.92999
-2.8612835 -6.7637248 -2.1058693 292.92999
-3.1403747 -7.4234619 -2.110091 292.92999
-3.4870498 -8.24296 -2.1206841 292.92999
-3.8833315 -9.1797218 -2.1186202 292.92999
-4.4037695 -10.409973 -2.1296194 292.92999
-5.1598935 -12.097201 -2.1607423 293.10001
-6.1696806 -14.464613 -2.2100689 293.10001
-7.7351804 -18.134876 -2.3055913 293.10001
-10.15744 -23.813786 -2.4153762 293.10001
-13.520662 -31.698748 -2.4098072 293.10001
-1.8515863 -4.3409834 -2.1012015 293.10001
-1.9730371 -4.625721 -2.1005552 293.10001
-2.1116416 -4.9506745 -2.1016841 293.10001
-2.2673593 -5.3157492 -2.1034238 293.10001
-2.4412701 -5.7234778 -2.1025283 293.10001
-2.6426623 -6.1956348 -2.1018043 293.10001
-2.8843563 -6.7622786 -2.1080744 293.10001
-3.1631458 -7.4158912 -2.1105976 293.10001
-3.5114918 -8.2325773 -2.1206841 293.10001
-3.9105511 -9.1681585 -2.1186202 293.10001
-4.4346371 -10.396861 -2.1296194 293.10001
-5.1988826 -12.08909 -2.1620393 293.26999
-6.2141356 -14.449883 -2.2106256 293.26999
-7.7960162 -18.128269 -2.307682 293.26999
-10.238279 -23.807325 -2.4177914 293.26999
-13.599678 -31.623669 -2.4071565 293.26999
-1.8659017 -4.3388276 -2.1028285 293.26999
-23.12565 -53.774647 -2.7297888 293.26999
-1.984566 -4.6147604 -2.0982425 293.26999
-2.1270573 -4.9460988 -2.1024115 293.26999
-2.2801514 -5.3020926 -2.1006877 293.26999
-2.4589899 -5.7179499 -2.1031687 293.26999
-2.6595249 -6.1842589 -2.1006126 293.26999
-2.9006102 -6.7448602 -2.1053181 293.26999
-3.1843708 -7.404696 -2.110091 293.26999
-3.5351341 -8.2203341 -2.120223 293.26999
-3.9354179 -9.151124 -2.1173728 293.26999
-4.4639125 -10.380047 -2.1288788 293.26999
-5.239192 -12.07813 -2.163012 293.45001
-6.2642293 -14.441191 -2.2122955 293.45001
-7.8553009 -18.109156 -2.3083789 293.45001
-10.34472 -23.848118 -2.4252226 293.45001
-13.714839 -31.617395 -2.4099467 293.45001
-1.8802505 -4.3346205 -2.103642 293.45001
-23.257902 -53.61742 -2.7255032 293.45001
-1.9983194 -4.6068096 -2.0974717 293.45001
-2.141844 -4.9376831 -2.1016841 293.45001
-2.2953014 -5.2914548 -2.0993197 293.45001
-2.4776952 -5.7119346 -2.1038089 293.45001
-2.6796999 -6.1776247 -2.1012084 293.45001
-2.9225504 -6.7374783 -2.1058693 293.45001
-3.2068477 -7.3928804 -2.1095846 293.45001
-3.5578437 -8.2020464 -2.1183784 293.45001
-3.9664829 -9.1441002 -2.1186202 293.45001
-4.4980645 -10.369577 -2.1296194 293.45001
-5.2773776 -12.067956 -2.1639845 293.62
-6.311017 -14.431614 -2.2136874 293.62
-7.9153647 -18.100328 -2.3102374 293.62
-10.432986 -23.857458 -2.4293098 293.62
-13.816583 -31.594843 -2.4113417 293.62
-1.8887109 -4.3189783 -2.0987611 293.62
-23.500135 -53.738544 -2.7351925 293.62
-2.0097611 -4.5957875 -2.0951591 293.62
-2.1579778 -4.93472 -2.1031389 293.62
-2.3117442 -5.2863431 -2.1000037 293.62
-2.4938726 -5.7028222 -2.1031687 293.62
-2.6964874 -6.1661482 -2.1000168 293.62
-2.942528 -6.7287774 -2.1058693 293.62
-11.407988 -26.087027 2.6563377 293.62
-3.2287686 -7.3833332 -2.1095846 293.62
-3.5837233 -8.1950197 -2.1193008 293.62
-3.991245 -9.126914 -2.1173728 293.62
-4.5288119 -10.356186 -2.1296194 293.62
-5.3192463 -12.060346 -2.1656058 293.79999
-6.3603206 -14.420776 -2.2150791 293.79999
-7.9842138 -18.102636 -2.3137219 293.79999
-10.535208 -23.886513 -2.4356265 293.79999
-13.910942 -31.540327 -2.4105048 293.79999
-1.9037446 -4.3163667 -2.1003881 293.79999
-2.0279129 -4.5978937 -2.0990133 293.79999
-2.1727183 -4.9262118 -2.1024115 293.79999
-2.3290989 -5.2807741 -2.1006877 293.79999
-2.510247 -5.6914921 -2.1018882 293.79999
-2.7166162 -6.1593933 -2.1006126 293.79999
-2.962101 -6.715982 -2.1047668 293.79999
-11.502743 -26.08021 2.6593103 293.79999
-3.2542903 -7.3784637 -2.111104 293.79999
-3.6110218 -8.1872826 -2.120223 293.79999
-4.0206881 -9.1161194 -2.1177886 293.79999
-4.5573587 -10.332915 -2.1277678 293.79999
-5.3566098 -12.048117 -2.1662543 293.97
-6.4071026 -14.410891 -2.2164707 293.97
-8.0411186 -18.086126 -2.314651 293.97
-10.603607 -23.849691 -2.4350691 293.97
-14.006894 -31.504383 -2.4109232 293.97
-1.9150586 -4.3073602 -2.0987611 293.97
-2.0430455 -4.5952291 -2.1005552 293.97
-2.1865683 -4.9180412 -2.1016841 293.97
-2.3462839 -5.2772746 -2.1020558 293.97
-2.5278928 -5.6857505 -2.1025283 293.97
-2.7333281 -6.1478167 -2.0994213 293.97
-2.9874818 -6.7194605 -2.1086259 293.97
-3.2722383 -7.3599362 -2.1085715 293.97
-3.6345074 -8.1747541 -2.1197619 293.97
-4.0485129 -9.105938 -2.1182044 293.97
-4.5887957 -10.321144 -2.1281381 293.97
-5.3918476 -12.036714 -2.1669028 294.13
-6.4529881 -14.405595 -2.2184193 294.13
-8.1005259 -18.083544 -2.3172064 294.13
-10.703544 -23.894499 -2.4426863 294.13
-14.108683 -31.496099 -2.413295 294.13
-1.9278264 -4.3036633 -2.0995746 294.13
-2.0528522 -4.5827694 -2.0974717 294.13
-2.2002933 -4.9119158 -2.1016841 294.13
-2.3617799 -5.2724171 -2.1027398 294.13
-2.5429859 -5.67694 -2.1018882 294.13
-2.7497051 -6.1384177 -2.0988255 294.13
-3.0046625 -6.7075825 -2.1075232 294.13
-3.2959421 -7.3578324 -2.1105976 294.13
-3.6573215 -8.1645727 -2.1197619 294.13
-4.0731258 -9.0928106 -2.1177886 294.13
-4.6208138 -10.315464 -2.1296194 294.13
-5.4319339 -12.036 -2.1694968 294.29001
-6.4964499 -14.394739 -2.2195327 294.29001
-8.1607981 -18.082579 -2.319994 294.29001
-10.784154 -23.895372 -2.4458447 294.29001
-14.190015 -31.44203 -2.4121788 294.29001
-1.9420917 -4.3032589 -2.102015 294.29001
-2.067919 -4.5820651 -2.0997841 294.29001
-2.2132351 -4.9040542 -2.1009564 294.29001
-2.3726287 -5.2572365 -2.0993197 294.29001
-2.5596085 -5.6715431 -2.1025283 294.29001
-2.7652652 -6.1272345 -2.0976338 294.29001
-3.0186369 -6.688652 -2.1042156 294.29001
-3.3132925 -7.3415456 -2.1085715 294.29001
-3.6809075 -8.1561012 -2.120223 294.29001
-4.0985022 -9.0814009 -2.1177886 294.29001
-4.6520271 -10.307895 -2.1307304 294.29001
-5.4734521 -12.021513 -2.1701453 294.48001
-6.5490727 -14.383932 -2.2212026 294.48001
-8.2281256 -18.07169 -2.3220847 294.48001
-10.883964 -23.904787 -2.4504893 294.48001
-14.290069 -31.385723 -2.4114814 294.48001
-1.9525657 -4.2884808 -2.0979476 294.48001
-2.0831025 -4.5751824 -2.0997841 294.48001
-2.2302573 -4.8983836 -2.1016841 294.48001
-2.3916068 -5.2527604 -2.1006877 294.48001
-2.5791869 -5.6647487 -2.1031687 294.48001
-2.7879419 -6.1232438 -2.0994213 294.48001
-3.040004 -6.6768551 -2.1036644 294.48001
-3.3392234 -7.3340397 -2.1095846 294.48001
-3.7071273 -8.1420794 -2.1197619 294.48001
-4.1285944 -9.0677605 -2.1177886 294.48001
-4.6853695 -10.290623 -2.1303599 294.48001
-5.5136623 -12.00964 -2.171118 294.66
-6.5958815 -14.366886 -2.2217593 294.66
-8.2890034 -18.054777 -2.3232462 294.66
-10.975626 -23.906672 -2.454205 294.66
-14.376945 -31.31529 -2.409528 294.66
-1.9683157 -4.2873068 -2.1003881 294.66
-2.0951555 -4.5635843 -2.0974717 294.66
-2.2471895 -4.8947392 -2.1031389 294.66
-2.4088812 -5.2469292 -2.1013718 294.66
-2.5969706 -5.6566176 -2.1031687 294.66
-11.953243 -26.036079 1.3360127 294.66
-2.8063684 -6.11272 -2.0988255 294.66
-11.96622 -26.064344 2.0054986 294.66
-3.0625691 -6.6707664 -2.1047668 294.66
-11.988441 -26.112745 2.6806755 294.66
-3.3614399 -7.3217549 -2.1090782 294.66
-11.970611 -26.073906 3.355129 294.66
-3.7326882 -8.130393 -2.1197619 294.66
-4.1586938 -9.058301 -2.1186202 294.66
-4.7152152 -10.270494 -2.1292491 294.66
-5.5480065 -11.995987 -2.1714423 294.82001
-6.640964 -14.359197 -2.2234294 294.82001
-8.3477278 -18.049589 -2.3255694 294.82001
-11.051538 -23.895809 -2.4562485 294.82001
-11.994572 -25.934853 -1.9981045 294.82001
-1.9787465 -4.2784767 -2.0987611 294.82001
-11.992358 -25.930067 -1.332286 294.82001
-2.1078911 -4.5577154 -2.0974717 294.82001
-2.2577214 -4.881681 -2.100229 294.82001
-12.006231 -25.960062 0 294.82001
-2.4235239 -5.2401819 -2.1013718 294.82001
-12.01055 -25.9694 0.66429293 294.82001
-2.6103706 -5.6441846 -2.101248 294.82001
-12.015001 -25.979025 1.3348016 294.82001
-2.821023 -6.0996604 -2.0970383 294.82001
-12.014671 -25.978312 2.0014527 294.82001
-3.0860276 -6.6726575 -2.1080744 294.82001
-12.053791 -26.062899 2.6790035 294.82001
-3.3802488 -7.3088274 -2.1080651 294.82001
-12.056717 -26.069223 3.3588459 294.82001
-3.7537441 -8.1164045 -2.1188395 294.82001
-4.1839728 -9.0466528 -2.1186202 294.82001
-4.7405772 -10.250151 -2.1277678 294.82001
-5.5910783 -11.995572 -2.1743603 294.98999
-6.6877227 -14.348405 -2.2248211 294.98999
-8.4113159 -18.046347 -2.328357 294.98999
-11.153517 -23.929697 -2.4631226 294.98999
-12.08664 -25.9317 -2.0006156 294.98999
-1.9906604 -4.2709308 -2.0979476 294.98999
-12.103846 -25.968613 -1.3361058 294.98999
-2.1206253 -4.5497684 -2.0967009 294.98999
-2.2729828 -4.8766494 -2.1009564 294.98999
-12.11362 -25.989584 0 294.98999
-2.4382672 -5.2312646 -2.1006877 294.98999
-12.121338 -26.006142 0.6661498 294.98999
-2.6271057 -5.6364145 -2.101248 294.98999
-12.124102 -26.012072 1.3383418 294.98999
-2.842335 -6.0981855 -2.0994213 294.98999
-12.140584 -26.047434 2.0095446 294.98999
-3.1001267 -6.6512742 -2.1042156 294.98999
-12.129386 -26.023409 2.6786318 294.98999
-3.4011023 -7.2970119 -2.1075585 294.98999
-12.239753 -26.260199 3.3881159 294.98999
-3.7794538 -8.1087589 -2.1197619 294.98999
-4.2091436 -9.030652 -2.1177886 294.98999
-4.7742906 -10.243166 -2.1292491 294.98999
-5.6304145 -11.98152 -2.1750088 295.17001
-6.736136 -14.334495 -2.2259345 295.17001
-8.4705029 -18.025227 -2.3290539 295.17001
-11.254046 -23.948606 -2.4686961 295.17001
-14.685662 -31.251083 -2.4145505 295.17001
-2.0063992 -4.2696171 -2.1003881 295.17001
-2.1372631 -4.5480947 -2.0990133 295.17001
-2.2890842 -4.8711705 -2.1016841 295.17001
-2.4562883 -5.2269807 -2.1020558 295.17001
-2.6464117 -5.6315632 -2.1025283 295.17001
-2.860667 -6.0874982 -2.0988255 295.17001
-3.1218247 -6.6432419 -2.1047668 295.17001
-3.4264784 -7.2915444 -2.1090782 295.17001
-11.991008 -25.516861 3.2970538 295.17001
-3.8015985 -8.0898008 -2.1179173 295.17001
-4.2391572 -9.0209255 -2.1186202 295.17001
-4.8081183 -10.231674 -2.1299896 295.17001
-5.6676288 -11.968328 -2.1756573 295.34
-6.7837234 -14.325185 -2.2276046 295.34
-8.5332994 -18.019764 -2.331609 295.34
-11.36511 -23.999699 -2.477428 295.34
-14.717695 -31.07935 -2.4046452 295.34
-2.0198407 -4.2652965 -2.1012015 295.34
-2.1499581 -4.5400653 -2.0982425 295.34
-2.3035271 -4.864357 -2.1016841 295.34
-2.4677644 -5.2111769 -2.0986357 295.34
-2.6622982 -5.621974 -2.1018882 295.34
-2.8770821 -6.0755324 -2.0976338 295.34
-3.1406991 -6.6322126 -2.1042156 295.34
-3.4464414 -7.2778487 -2.1080651 295.34
-12.066665 -25.481171 3.2970538 295.34
-3.8280835 -8.0837622 -2.1193008 295.34
-4.2659044 -9.0083075 -2.1186202 295.34
-4.8392963 -10.219139 -2.1303599 295.34
-5.7111526 -11.962932 -2.177927 295.51999
-6.8329601 -14.312738 -2.2289963 295.51999
-8.596715 -18.007208 -2.3334675 295.51999
-11.442167 -23.96747 -2.4777994 295.51999
-14.742199 -30.879919 -2.3927865 295.51999
-2.0332305 -4.2589297 -2.1012015 295.51999
-2.1634154 -4.5316234 -2.0974717 295.51999
-2.3163898 -4.8520527 -2.0995016 295.51999
-2.483314 -5.2017021 -2.0979517 295.51999
-2.6799471 -5.6135821 -2.1018882 295.51999
-2.8986223 -6.0716329 -2.0994213 295.51999
-3.1648324 -6.6292529 -2.1064208 295.51999
-3.4701221 -7.2687311 -2.1085715 295.51999
-3.852622 -8.0699396 -2.1188395 295.51999
-4.2933407 -8.9930964 -2.1182044 295.51999
-4.8722234 -10.20566 -2.1307304 295.51999
-5.7394056 -11.936265 -2.1759815 295.67999
-6.8763351 -14.300741 -2.2301097 295.67999
-8.656436 -18.002823 -2.3360229 295.67999
-11.477124 -23.86902 -2.4709256 295.67999
-14.767854 -30.712765 -2.3830206 295.67999
-2.0459075 -4.2548819 -2.102015 295.67999
-2.1784608 -4.5305538 -2.0997841 295.67999
-2.3315449 -4.8489232 -2.1009564 295.67999
-2.5002735 -5.1998286 -2.1000037 295.67999
-2.6947916 -5.6043692 -2.101248 295.67999
-2.9139113 -6.0600734 -2.0982296 295.67999
-3.1824992 -6.6186566 -2.1058693 295.67999
-3.491245 -7.2607565 -2.1090782 295.67999
-3.8726125 -8.0538874 -2.1174562 295.67999
-4.3201332 -8.9845982 -2.119036 295.67999
-4.9032593 -10.197328 -2.1318412 295.67999
-5.7811799 -11.927054 -2.1776028 295.85999
-6.9264112 -14.289762 -2.2317798 295.85999
-8.7259474 -18.002354 -2.3395073 295.85999
-11.539025 -23.805967 -2.4681387 295.85999
-14.936497 -30.815233 -2.3946002 295.85999
-2.0584674 -4.2467895 -2.1012015 295.85999
-2.1902685 -4.5187058 -2.0974717 295.85999
-2.3459542 -4.8398981 -2.100229 295.85999
-2.5149572 -5.1885657 -2.0986357 295.85999
-2.7123849 -5.5958753 -2.101248 295.85999
-2.9329352 -6.050889 -2.0982296 295.85999
-3.2049537 -6.6120858 -2.106972 295.85999
-3.5131941 -7.2480111 -2.1085715 295.85999
-3.8970466 -8.0399303 -2.1169951 295.85999
-4.3474841 -8.9692211 -2.1186202 295.85999
-4.9378428 -10.18718 -2.1329522 295.85999
-5.8239875 -11.930372 -2.1811695 296.01999
-6.9697642 -14.277483 -2.2328932 296.01999
-8.7822847 -17.990412 -2.3411334 296.01999
-11.596724 -23.755756 -2.4662809 296.01999
-2.0671127 -4.234457 -2.0979476 296.01999
-2.2044976 -4.5158887 -2.0990133 296.01999
-2.357826 -4.8299799 -2.0987742 296.01999
-2.530261 -5.1832113 -2.0993197 296.01999
-2.7329881 -5.5984955 -2.1050894 296.01999
-2.946471 -6.0358124 -2.0958467 296.01999
-3.2183454 -6.5927439 -2.1036644 296.01999
-3.5308745 -7.2329564 -2.1070521 296.01999
-3.9194829 -8.0290165 -2.1169951 296.01999
-4.3716559 -8.9552879 -2.1182044 296.01999
-4.9628224 -10.166286 -2.1314709 296.01999
-5.8609033 -11.905682 -2.1801968 296.20999
-7.0223198 -14.264953 -2.2345634 296.20999
-8.8568096 -17.991488 -2.3450825 296.20999
-11.614751 -23.593895 -2.4534619 296.20999
-14.808115 -30.080809 -2.3445151 296.20999
-2.0803363 -4.2259398 -2.0971341 296.20999
-2.2186456 -4.5068974 -2.0982425 296.20999
-2.3730068 -4.8204627 -2.0980465 296.20999
-2.5482655 -5.1764784 -2.1000037 296.20999
-2.7498648 -5.5860019 -2.1038089 296.20999
-2.9673135 -6.0277214 -2.0964425 296.20999
-3.2435863 -6.5889349 -2.1058693 296.20999
-3.5556948 -7.2229438 -2.1075585 296.20999
-3.9469461 -8.0177212 -2.1174562 296.20999
-4.4065127 -8.951273 -2.1206992 296.20999
-4.9965076 -10.149773 -2.1314709 296.20999
-5.8958802 -11.892805 -2.1808453 296.37
-7.0612478 -14.243513 -2.2342849 296.37
-8.908782 -17.970243 -2.3455472 296.37
-11.618677 -23.436478 -2.4404569 296.37
-14.869019 -29.992865 -2.3408878 296.37
-2.0937524 -4.2233877 -2.0987611 296.37
-2.232862 -4.5039911 -2.0997841 296.37
-2.3864589 -4.8138175 -2.0980465 296.37
-2.5610414 -5.1659746 -2.0986357 296.37
-2.7620866 -5.5715108 -2.101248 296.37
-2.9892225 -6.029675 -2.1000168 296.37
-3.2594118 -6.5746837 -2.1042156 296.37
-3.57757 -7.2164531 -2.1085715 296.37
-3.9675918 -8.0031805 -2.116534 296.37
-4.4332299 -8.9424381 -2.121531 296.37
-5.0309429 -10.148107 -2.134063 296.37
-5.9320226 -11.877025 -2.1811695 296.54001
-7.106133 -14.227815 -2.2351201 296.54001
-8.976263 -17.972166 -2.3492639 296.54001
-11.611643 -23.248692 -2.4244795 296.54001
-14.924067 -29.880789 -2.3355863 296.54001
-2.1054578 -4.2155223 -2.0979476 296.54001
-2.2462158 -4.4973464 -2.0997841 296.54001
-2.4048934 -4.8150487 -2.1016841 296.54001
-2.5780373 -5.1617155 -2.1000037 296.54001
-2.7760656 -5.5582056 -2.0993273 296.54001
-3.0036874 -6.013947 -2.0976338 296.54001
-3.2832 -6.5735836 -2.106972 296.54001
-3.5972369 -7.2023444 -2.1075585 296.54001
-3.9913201 -7.9913735 -2.116534 296.54001
-4.4579949 -8.9257441 -2.1206992 296.54001
-5.0610304 -10.133135 -2.134063 296.54001
-5.9764051 -11.872433 -2.1837633 296.72
-7.1597009 -14.22311 -2.2379034 296.72
-9.0433979 -17.96517 -2.3520517 296.72
-11.61747 -23.078695 -2.4105458 296.72
-15.002617 -29.803461 -2.3332145 296.72
-2.1186907 -4.2088871 -2.0979476 296.72
-2.2570143 -4.483674 -2.0967009 296.72
-2.4149826 -4.7974854 -2.0973191 296.72
-2.5925505 -5.1502337 -2.0986357 296.72
-2.7935135 -5.5494571 -2.0993273 296.72
-3.0234244 -6.0061865 -2.0982296 296.72
-3.2977843 -6.5512161 -2.1031129 296.72
-3.6207159 -7.1927361 -2.1080651 296.72
-4.0181561 -7.9822712 -2.1174562 296.72
-4.4868937 -8.9134426 -2.121115 296.72
-5.0981421 -10.127718 -2.1362848 296.72
-6.0122128 -11.860978 -2.184736 296.88
-7.2011824 -14.206594 -2.2384601 296.88
-9.0998173 -17.952248 -2.3536777 296.88
-11.608945 -22.90229 -2.3954973 296.88
-14.811563 -29.220463 -2.2908025 296.88
-2.1287837 -4.1996946 -2.0963206 296.88
-2.2736983 -4.4855843 -2.1005552 296.88
-2.4342663 -4.8023548 -2.1024115 296.88
-2.6111712 -5.1513553 -2.1020558 296.88
-2.8107131 -5.5450144 -2.1006076 296.88
-3.0375953 -5.9926109 -2.0964425 296.88
-3.3195426 -6.548841 -2.1053181 296.88
-3.6372886 -7.175694 -2.106039 296.88
-4.040431 -7.9710193 -2.1174562 296.88
-4.5126519 -8.9026232 -2.121531 296.88
-5.1264038 -10.113442 -2.1362848 296.88
-6.0586972 -11.855035 -2.18733 297.07001
-7.249155 -14.1844 -2.2387385 297.07001
-9.1746674 -17.952044 -2.3576269 297.07001
-11.614142 -22.725359 -2.381006 297.07001
-14.843009 -29.043272 -2.2807577 297.07001
-2.1435301 -4.1942391 -2.0971341 297.07001
-2.2877207 -4.4763761 -2.0997841 297.07001
-2.4484825 -4.7909384 -2.1009564 297.07001
-2.6265287 -5.1393213 -2.1006877 297.07001
-2.8333967 -5.5440993 -2.1038089 297.07001
-3.0600574 -5.9876051 -2.0982296 297.07001
-3.3421161 -6.5395088 -2.1058693 297.07001
-3.6619444 -7.1653161 -2.1065454 297.07001
-4.0650706 -7.9541111 -2.116534 297.07001
-4.5403686 -8.8841257 -2.1206992 297.07001
-5.1617022 -10.099887 -2.1370256 297.07001
-6.0917788 -11.838069 -2.18733 297.23001
-7.2932682 -14.172906 -2.2401302 297.23001
-9.2274895 -17.931652 -2.3583238 297.23001
-11.612865 -22.56712 -2.3678155 297.23001
-14.934097 -29.021223 -2.2822924 297.23001
-2.1602504 -4.1979847 -2.102015 297.23001
-2.2968345 -4.4634066 -2.0967009 297.23001
-2.4601469 -4.7807693 -2.0995016 297.23001
-2.6408703 -5.1319666 -2.1006877 297.23001
-2.8436658 -5.5260568 -2.0999675 297.23001
-3.0732718 -5.9722462 -2.0958467 297.23001
-3.3603649 -6.5301504 -2.1058693 297.23001
-3.6810541 -7.1533418 -2.106039 297.23001
-4.0881572 -7.944459 -2.1169951 297.23001
-4.5660553 -8.8731518 -2.121115 297.23001
-5.1916847 -10.088929 -2.1377661 297.23001
-6.1316648 -11.824129 -2.1883028 297.41
-7.3486986 -14.171022 -2.2434704 297.41
-9.2965803 -17.927263 -2.3615761 297.41
-11.61495 -22.397942 -2.3538816 297.41
-15.043566 -29.009586 -2.2850826 297.41
-2.1700637 -4.1846895 -2.0987611 297.41
-2.3125443 -4.4594455 -2.0982425 297.41
-2.4742963 -4.7713633 -2.0987742 297.41
-2.6561146 -5.1219764 -2.1000037 297.41
-2.866246 -5.5271878 -2.1038089 297.41
-3.0928977 -5.9642568 -2.0964425 297.41
-3.3737829 -6.5059075 -2.1014593 297.41
-3.7052903 -7.1451769 -2.1070521 297.41
-4.1139913 -7.9333038 -2.1174562 297.41
-4.5921073 -8.8552895 -2.1202834 297.41
-5.2260685 -10.077803 -2.1388769 297.41
-6.1664867 -11.810459 -2.1889513 297.57001
-7.3882427 -14.150446 -2.2434704 297.57001
-9.3613167 -17.929407 -2.3652928 297.57001
-11.611092 -22.238323 -2.3405051 297.57001
-15.132828 -28.983381 -2.2863381 297.57001
-2.1834323 -4.1818523 -2.1003881 297.57001
-2.3275509 -4.4578776 -2.1005552 297.57001
-2.485024 -4.7594805 -2.0965917 297.57001
-2.6686678 -5.111207 -2.0986357 297.57001
-2.8764079 -5.5090847 -2.0999675 297.57001
-3.1104248 -5.9572887 -2.0970383 297.57001
-3.3981664 -6.5083904 -2.1053181 297.57001
-3.721647 -7.1279416 -2.105026 297.57001
-4.1352282 -7.9200597 -2.1169951 297.57001
-4.6177235 -8.8441658 -2.1206992 297.57001
-5.2578292 -10.070139 -2.1403582 297.57001
-6.2116065 -11.811324 -2.1925178 297.73999
-7.4357266 -14.13898 -2.2451406 297.73999
-9.4274178 -17.926167 -2.3685451 297.73999
-11.620482 -22.096262 -2.3291724 297.73999
-15.22247 -28.945417 -2.2868962 297.73999
-2.1949801 -4.1737385 -2.0995746 297.73999
-2.3381906 -4.4460521 -2.0982425 297.73999
-2.500869 -4.755384 -2.0980465 297.73999
-2.684696 -5.1049299 -2.0993197 297.73999
-2.892741 -5.500526 -2.0999675 297.73999
-3.129864 -5.9514132 -2.0982296 297.73999
-3.4165673 -6.4965777 -2.1047668 297.73999
-3.7445807 -7.1202927 -2.106039 297.73999
-4.1578035 -7.9060326 -2.116534 297.73999
-4.6466756 -8.8356199 -2.1219468 297.73999
-5.2913442 -10.061452 -2.1418395 297.73999
-6.2482595 -11.800909 -2.1938148 297.89999
-7.4751811 -14.11816 -2.2451406 297.89999
-9.4820881 -17.908548 -2.3697066 297.89999
-11.641142 -21.98629 -2.320998 297.89999
-15.301375 -28.899269 -2.2866173 297.89999
-2.204917 -4.1643634 -2.0979476 297.89999
-2.3514607 -4.4411364 -2.0990133 297.89999
-2.5158823 -4.7516747 -2.0995016 297.89999
-2.6963029 -5.0924301 -2.0972676 297.89999
-2.9125233 -5.5007992 -2.1031687 297.89999
-3.1446843 -5.9392753 -2.0970383 297.89999
-3.4283986 -6.4751182 -2.100908 297.89999
-3.7662604 -7.1132283 -2.1070521 297.89999
-4.1798649 -7.8943911 -2.116534 297.89999
-4.6722469 -8.8243389 -2.1223626 297.89999
-5.32126 -10.050111 -2.14258 297.89999
-6.2836413 -11.77316 -2.1925178 298.09
-7.5294175 -14.107271 -2.2473671 298.09
-9.551712 -17.896284 -2.3722618 298.09
-11.701797 -21.924728 -2.3185828 298.09
-15.385851 -28.827248 -2.2849431 298.09
-2.2212951 -4.1618643 -2.1003881 298.09
-2.3661749 -4.4333143 -2.0990133 298.09
-2.53338 -4.746593 -2.1009564 298.09
-2.7122903 -5.0818028 -2.0965834 298.09
-2.9316406 -5.4927821 -2.1038089 298.09
-3.1670594 -5.9338675 -2.0988255 298.09
-3.4561887 -6.4755859 -2.1047668 298.09
-3.7870951 -7.0955791 -2.1055326 298.09
-4.2078533 -7.8839207 -2.1174562 298.09
-4.6959567 -8.7984409 -2.1198676 298.09
-5.3564086 -10.035877 -2.1433206 298.09
-6.3174281 -11.757305 -2.192842 298.25
-7.5734701 -14.094913 -2.248759 298.25
-9.6148138 -17.894037 -2.375514 298.25
-11.745069 -21.858637 -2.3150527 298.25
-15.464403 -28.780655 -2.2846639 298.25
-2.2329085 -4.1556449 -2.1003881 298.25
-2.3776724 -4.4250636 -2.0982425 298.25
-2.5422161 -4.7312942 -2.0973191 298.25
-2.7300289 -5.0808311 -2.0993197 298.25
-2.9469678 -5.4845738 -2.1038089 298.25
-3.1781955 -5.9149094 -2.0952508 298.25
-3.4706185 -6.4591351 -2.1025617 298.25
-3.8078105 -7.0866799 -2.106039 298.25
-4.2289319 -7.8704252 -2.1169951 298.25
-4.7195826 -8.7835703 -2.1194518 298.25
-5.3862739 -10.024343 -2.1440613 298.25
-6.362021 -11.746703 -2.1947875 298.44
-7.6258283 -14.080171 -2.2504292 298.44
-9.6816673 -17.87603 -2.3773725 298.44
-11.798523 -21.784548 -2.3113372 298.44
-2.2458067 -4.1466107 -2.0995746 298.44
-2.3940911 -4.4204001 -2.0997841 298.44
-2.558779 -4.7244763 -2.0980465 298.44
-2.7468626 -5.0717497 -2.0993197 298.44
-2.9588227 -5.4631085 -2.0993273 298.44
-3.2014294 -5.9110527 -2.0976338 298.44
-3.4901874 -6.4442096 -2.1014593 298.44
-3.8303685 -7.0723128 -2.1055326 298.44
-4.2550077 -7.8563581 -2.1169951 298.44
-4.744957 -8.7609901 -2.1177886 298.44
-5.4232302 -10.013339 -2.1455424 298.44
-6.4006262 -11.734706 -2.1960845 298.60999
-7.66852 -14.059221 -2.2507074 298.60999
-9.7470303 -17.869896 -2.3803923 298.60999
-11.857386 -21.738955 -2.3102224 298.60999
-16.480869 -30.215502 -2.4067378 298.60999
-2.2581 -4.1399293 -2.0995746 298.60999
-2.4036615 -4.4067969 -2.0967009 298.60999
-2.5727854 -4.7168632 -2.0980465 298.60999
-2.7618988 -5.0635777 -2.0993197 298.60999
-2.9732044 -5.4509788 -2.0980468 298.60999
-3.2207823 -5.90488 -2.0988255 298.60999
-3.5129747 -6.4405766 -2.1036644 298.60999
-3.848556 -7.0558209 -2.104013 298.60999
-4.2764359 -7.8402815 -2.1160729 298.60999
-4.7784247 -8.7606125 -2.121115 298.60999
-5.4529166 -9.9972038 -2.1455424 298.60999
-6.4382663 -11.720852 -2.1970572 298.78
-7.7178288 -14.050294 -2.2529342 298.78
-9.8095713 -17.858309 -2.3827155 298.78
-11.919917 -21.700188 -2.3098509 298.78
-16.688595 -30.381557 -2.423898 298.78
-2.2686143 -4.1300082 -2.0979476 298.78
-2.4193916 -4.4044981 -2.0990133 298.78
-2.5885632 -4.7124748 -2.0995016 298.78
-2.7760055 -5.0537133 -2.0986357 298.78
-2.9911892 -5.4454546 -2.0993273 298.78
-3.2346115 -5.8886046 -2.0964425 298.78
-3.5283666 -6.4233851 -2.1014593 298.78
-3.8713372 -7.0477624 -2.105026 298.78
-4.3015532 -7.8309703 -2.1169951 298.78
-4.8072224 -8.7515402 -2.1223626 298.78
-5.4882321 -9.9913168 -2.1477642 298.78
-6.4844775 -11.722421 -2.200948 298.95001
-7.7623587 -14.032532 -2.2537692 298.95001
-9.8692455 -17.841291 -2.3843415 298.95001
-11.965936 -21.631617 -2.3063209 298.95001
-15.197759 -27.473997 -2.1955152 298.95001
-2.2826271 -4.1264567 -2.0995746 298.95001
-2.431556 -4.3956852 -2.0982425 298.95001
-2.6016321 -4.7031431 -2.0987742 298.95001
-2.7882588 -5.0405207 -2.0965834 298.95001
-3.007333 -5.4365559 -2.0993273 298.95001
-3.2511449 -5.8773108 -2.0958467 298.95001
-3.5520625 -6.4212995 -2.1042156 298.95001
-3.8922312 -7.0362449 -2.105026 298.95001
-4.3228855 -7.8147669 -2.1160729 298.95001
-4.82938 -8.7303905 -2.1206992 298.95001
-5.5178528 -9.9749889 -2.1477642 298.95001
-6.5171876 -11.704268 -2.200948 299.10999
-7.8053689 -14.017722 -2.2548826 299.10999
-9.9335251 -17.839695 -2.387826 299.10999
-12.018546 -21.584198 -2.3048346 299.10999
-15.293833 -27.466312 -2.1983056 299.10999
-2.290586 -4.1136808 -2.0963206 299.10999
-2.4411283 -4.3840408 -2.0959301 299.10999
-2.6156621 -4.6974874 -2.0995016 299.10999
-2.8041525 -5.0359988 -2.0979517 299.10999
-3.0225029 -5.4281363 -2.0993273 299.10999
-3.2694023 -5.8715448 -2.0970383 299.10999
-3.5643685 -6.4012771 -2.100908 299.10999
-3.9109237 -7.0236583 -2.1045196 299.10999
-4.3427978 -7.799264 -2.1151507 299.10999
-4.8594513 -8.7271261 -2.1231942 299.10999
-5.5504675 -9.9681273 -2.1496158 299.10999
-6.5547814 -11.690043 -2.2019207 299.28
-7.8527374 -14.004867 -2.2565527 299.28
-9.9990435 -17.832668 -2.390846 299.28
-12.073769 -21.532812 -2.3031626 299.28
-15.748981 -28.087322 -2.251739 299.28
-2.3054621 -4.1116476 -2.0987611 299.28
-2.4577355 -4.3832173 -2.0990133 299.28
-2.6277659 -4.6864562 -2.0980465 299.28
-2.8200014 -5.0292959 -2.0986357 299.28
-3.0376685 -5.4174919 -2.0986869 299.28
-3.2858753 -5.8601532 -2.0964425 299.28
-3.584286 -6.3923502 -2.1014593 299.28
-3.9326923 -7.013711 -2.105026 299.28
-4.3697267 -7.7931342 -2.1169951 299.28
-4.8853235 -8.7126694 -2.1231942 299.28
-5.5829029 -9.9567575 -2.1507268 299.28
-6.5983658 -11.676833 -2.203542 299.47
-7.9069309 -13.992543 -2.2587795 299.47
-10.069851 -17.820166 -2.3936336 299.47
-12.137271 -21.478786 -2.3016763 299.47
-15.781179 -27.92725 -2.2430892 299.47
-2.3163877 -4.0992079 -2.0963206 299.47
-2.4722571 -4.3750434 -2.0990133 299.47
-2.6442089 -4.6793385 -2.0987742 299.47
-2.8357389 -5.0182805 -2.0979517 299.47
-3.0593455 -5.4139872 -2.101248 299.47
-3.3043511 -5.8475623 -2.0958467 299.47
-3.6026268 -6.3754077 -2.0998054 299.47
-3.9549773 -6.9989467 -2.1045196 299.47
-4.391716 -7.7718239 -2.1151507 299.47
-4.9151516 -8.6981239 -2.12361 299.47
-5.61589 -9.9381895 -2.1507268 299.47
-6.6328993 -11.661793 -2.2041905 299.63
-7.9547873 -13.985902 -2.2612846 299.63
-10.122521 -17.797155 -2.3943305 299.63
-12.201141 -21.451733 -2.3024194 299.63
-15.828527 -27.829309 -2.2387643 299.63
-2.3278258 -4.0927234 -2.0963206 299.63
-2.4817278 -4.3633099 -2.0967009 299.63
-2.6545024 -4.667078 -2.0965917 299.63
-2.8478832 -5.0070748 -2.0965834 299.63
-3.0763259 -5.4087167 -2.1025283 299.63
-3.3234992 -5.8432908 -2.0976338 299.63
-3.6251686 -6.3736782 -2.1025617 299.63
-3.9764197 -6.9912386 -2.1055326 299.63
-4.4162884 -7.7646046 -2.116534 299.63
-4.9355531 -8.6775627 -2.1219468 299.63
-5.648479 -9.9310102 -2.1525784 299.63
-6.6724463 -11.646034 -2.2051632 299.81
-8.0006552 -13.964279 -2.2618413 299.81
-10.196157 -17.796291 -2.3985119 299.81
-12.268474 -21.413296 -2.3024194 299.81
-15.856368 -27.675577 -2.2303934 299.81
-2.3388553 -4.0822191 -2.0946937 299.81
-2.4963408 -4.3570929 -2.0974717 299.81
-2.6700776 -4.6603322 -2.0973191 299.81
-2.8645337 -4.9997339 -2.0972676 299.81
-3.0923607 -5.3973818 -2.1018882 299.81
-3.3351963 -5.8212247 -2.0934637 299.81
-3.6461298 -6.3639259 -2.1031129 299.81
-3.9974017 -6.9770331 -2.105026 299.81
-4.4396925 -7.7490034 -2.1160729 299.81
-4.9666805 -8.6688042 -2.12361 299.81
-5.6776962 -9.9098053 -2.1518376 299.81
-6.7098718 -11.635904 -2.2067845 299.97
-8.0435772 -13.948746 -2.2629547 299.97
-10.261692 -17.795282 -2.4022288 299.97
-12.320265 -21.36515 -2.3009331 299.97
-15.907678 -27.586254 -2.2267661 299.97
-2.3538966 -4.0820031 -2.0979476 299.97
-2.5084982 -4.3501048 -2.0974717 299.97
-2.6821506 -4.6512437 -2.0965917 299.97
-2.880362 -4.9949713 -2.0986357 299.97
-3.1074209 -5.3887248 -2.1018882 299.97
-3.3543005 -5.8168502 -2.0952508 299.97
-3.6600456 -6.3470573 -2.100908 299.97
-4.0139699 -6.9608145 -2.1035066 299.97
-4.4622865 -7.7382612 -2.116534 299.97
-4.9918461 -8.6565952 -2.1240258 299.97
-5.7122202 -9.9058304 -2.1544297 299.97
-6.7503586 -11.621593 -2.2080815 300.14999
-8.0933266 -13.933682 -2.2646246 300.14999
-10.33351 -17.790442 -2.4059455 300.14999
-12.375322 -21.305677 -2.2987039 300.14999
-14.841867 -25.552145 -2.0663264 300.14999
-2.366709 -4.0745883 -2.0979476 300.14999
-2.5230789 -4.3437986 -2.0982425 300.14999
-2.7004926 -4.6492386 -2.0995016 300.14999
-2.8950961 -4.984273 -2.0979517 300.14999
-3.1243348 -5.3789363 -2.1018882 300.14999
-3.3725581 -5.806284 -2.0952508 300.14999
-3.6790016 -6.3338652 -2.1003566 300.14999
-4.0377617 -6.9515162 -2.1045196 300.14999
-4.4836426 -7.7191558 -2.1151507 300.14999
-5.0229473 -8.6476364 -2.125689 300.14999
-5.7442989 -9.889535 -2.1548002 300.14999
-6.7868032 -11.60492 -2.20873 300.32001
-8.1386328 -13.916447 -2.265738 300.32001
-10.397281 -17.778564 -2.4085009 300.32001
-12.440494 -21.272303 -2.2990754 300.32001
-14.991142 -25.63372 -2.0765107 300.32001
-2.3787882 -4.0675478 -2.0979476 300.32001
-2.5359561 -4.3362932 -2.0982425 300.32001
-2.7142751 -4.6412053 -2.0995016 300.32001
-2.9098718 -4.9756608 -2.0979517 300.32001
-3.1402805 -5.3696423 -2.1018882 300.32001
-3.3897707 -5.7962518 -2.0952508 300.32001
-3.6968079 -6.3212619 -2.0998054 300.32001
-4.0573931 -6.9378352 -2.104013 300.32001
-4.5075083 -7.7074986 -2.1156118 300.32001
-5.0495706 -8.6343842 -2.1261048 300.32001
-5.7746091 -9.8741446 -2.1551704 300.32001
-6.8242102 -11.589835 -2.2097027 300.48999
-8.1849127 -13.900771 -2.2671299 300.48999
-10.459057 -17.763042 -2.4105916 300.48999
-12.516689 -21.257607 -2.3014905 300.48999
-15.016518 -25.503166 -2.069535 300.48999
-2.3917735 -4.0620465 -2.0987611 300.48999
-2.5506837 -4.3319306 -2.0997841 300.48999
-2.7251983 -4.6283154 -2.0973191 300.48999
-2.9236686 -4.9653859 -2.0972676 300.48999
-3.1485078 -5.3472395 -2.0967662 300.48999
-3.408891 -5.7894588 -2.0964425 300.48999
-3.7165227 -6.3119221 -2.1003566 300.48999
-4.0799232 -6.9291005 -2.105026 300.48999
-4.5264072 -7.6873822 -2.1137674 300.48999
-5.0751672 -8.6193638 -2.1261048 300.48999
-5.808867 -9.8654356 -2.157022 300.48999
-6.8575668 -11.563247 -2.20873 300.67001
-8.2315731 -13.880099 -2.2679648 300.67001
-10.512782 -17.726681 -2.4101269 300.67001
-12.58341 -21.218178 -2.3014905 300.67001
-15.10267 -25.46616 -2.0703721 300.67001
-2.4045229 -4.0545125 -2.0987611 300.67001
-2.5576909 -4.3127847 -2.0943882 300.67001
-2.7425759 -4.6245384 -2.0995016 300.67001
-2.937336 -4.9529433 -2.0958993 300.67001
-3.1710901 -5.3471003 -2.1006076 300.67001
-3.4241407 -5.7737947 -2.0946553 300.67001
-3.735353 -6.2985616 -2.0998054 300.67001
-4.1006846 -6.9145846 -2.1045196 300.67001
-4.5535135 -7.6781459 -2.1151507 300.67001
-5.1072102 -8.6117907 -2.1281841 300.67001
-5.8408337 -9.8488283 -2.1573923 300.67001
-6.8938766 -11.55083 -2.210027 300.82999
-8.2743616 -13.863861 -2.2690783 300.82999
-10.566316 -17.704077 -2.4110563 300.82999
-12.631388 -21.164146 -2.2994471 300.82999
-15.119534 -25.333086 -2.062978 300.82999
-2.4130268 -4.0430751 -2.0963206 300.82999
-2.5744534 -4.313549 -2.0982425 300.82999
-2.752615 -4.6120625 -2.0973191 300.82999
-2.9511557 -4.9447212 -2.0958993 300.82999
-3.1860096 -5.3382239 -2.1006076 300.82999
-3.4392724 -5.7625709 -2.0940595 300.82999
-3.7539127 -6.2897568 -2.1003566 300.82999
-4.1189861 -6.9014454 -2.104013 300.82999
-4.5729427 -7.6620584 -2.1142285 300.82999
-5.1302361 -8.5958147 -2.1277683 300.82999
-5.8683143 -9.8324795 -2.1573923 300.82999
-6.9351935 -11.532979 -2.2109995 301.01999
-8.3223314 -13.839741 -2.269635 301.01999
-10.636228 -17.687666 -2.4136114 301.01999
-12.706632 -21.130676 -2.3003759 301.01999
-15.23636 -25.337523 -2.0674424 301.01999
-2.428304 -4.0381827 -2.0979476 301.01999
-2.5887434 -4.3049879 -2.0982425 301.01999
-2.767894 -4.6029091 -2.0973191 301.01999
-2.9655998 -4.9316864 -2.0945313 301.01999
-3.2036943 -5.3276296 -2.1006076 301.01999
-3.4622984 -5.7576785 -2.0964425 301.01999
-3.7747495 -6.2772741 -2.1003566 301.01999
-4.1428466 -6.8894062 -2.1045196 301.01999
-4.6003313 -7.650187 -2.1151507 301.01999
-5.1627455 -8.5854616 -2.1294315 301.01999
-5.905952 -9.8213873 -2.1592438 301.01999
-6.970438 -11.518633 -2.2119722 301.17999
-8.3701754 -13.831697 -2.27214 301.17999
-10.693807 -17.671492 -2.4154699 301.17999
-12.760436 -21.086592 -2.2994471 301.17999
-15.342175 -25.352911 -2.0721858 301.17999
-2.4405172 -4.032949 -2.0987611 301.17999
-2.5969334 -4.2914267 -2.0951591 301.17999
-2.7817016 -4.5967555 -2.0980465 301.17999
-2.9803331 -4.9249935 -2.0952153 301.17999
-3.2175784 -5.3170409 -2.0999675 301.17999
-3.4763863 -5.7447209 -2.0952508 301.17999
-3.7902737 -6.2634187 -2.0992541 301.17999
-4.1620693 -6.8778105 -2.1045196 301.17999
-4.6186543 -7.6323156 -2.1137674 301.17999
-5.1867003 -8.5710106 -2.1294315 301.17999
-5.9394603 -9.8149452 -2.1614656 301.17999
-7.0056105 -11.499586 -2.2122965 301.35001
-8.4152994 -13.813566 -2.2732534 301.35001
-10.756527 -17.656649 -2.417793 301.35001
-12.816729 -21.038435 -2.2983322 301.35001
-15.084136 -24.760344 -2.0274022 301.35001
-2.4477196 -4.0178885 -2.0946937 301.35001
-2.6125352 -4.2884307 -2.0974717 301.35001
-2.7933896 -4.5853 -2.0965917 301.35001
-2.9959104 -4.9177341 -2.0958993 301.35001
-3.2284112 -5.2993803 -2.0967662 301.35001
-3.4884496 -5.7262287 -2.0922723 301.35001
-3.8138418 -6.2603545 -2.1020105 301.35001
-4.1814513 -6.8637786 -2.104013 301.35001
-4.6453295 -7.6252265 -2.1156118 301.35001
-5.2151613 -8.5605955 -2.1306789 301.35001
-5.9685559 -9.7972794 -2.1614656 301.35001
-7.041822 -11.486709 -2.2135935 301.51001
-8.4590168 -13.798455 -2.2746451 301.51001
-10.81825 -17.646866 -2.4205806 301.51001
-12.875428 -21.002562 -2.2983322 301.51001
-15.122981 -24.668797 -2.0233562 301.51001
-2.4617949 -4.0157104 -2.0971341 301.51001
-32.522449 -53.051029 -2.9018681 301.51001
-2.6216068 -4.2763982 -2.0951591 301.51001
-2.8071568 -4.5790696 -2.0973191 301.51001
-3.0086493 -4.9077468 -2.0952153 301.51001
-3.2471585 -5.2968059 -2.0993273 301.51001
-3.5094159 -5.7246032 -2.0952508 301.51001
-3.8262851 -6.2414846 -2.0992541 301.51001
-4.1985798 -6.8487763 -2.1029999 301.51001
-4.6615191 -7.6039286 -2.1133063 301.51001
-5.2390471 -8.5459986 -2.1306789 301.51001
-5.9958916 -9.7805738 -2.1614656 301.51001
-7.0830574 -11.472925 -2.2152147 301.69
-8.5106478 -13.785294 -2.2768719 301.69
-10.888246 -17.636456 -2.4238327 301.69
-12.939255 -20.95862 -2.2979608 301.69
-15.155337 -24.548164 -2.0173571 301.69
-2.4743984 -4.007957 -2.0971341 301.69
-2.6340592 -4.2665706 -2.0943882 301.69
-2.8225074 -4.5718131 -2.0980465 301.69
-3.0240526 -4.8982706 -2.0952153 301.69
-3.2667689 -5.2914152 -2.101248 301.69
-3.5263798 -5.711925 -2.0946553 301.69
-3.8458745 -6.2294331 -2.0992541 301.69
-4.2210913 -6.8371983 -2.1035066 301.69
-4.6823177 -7.5842786 -2.1119227 301.69
-5.2668967 -8.5311623 -2.1310949 301.69
-6.0348487 -9.7750683 -2.164428 301.69
-7.1221914 -11.455645 -2.2161875 301.87
-8.5591421 -13.766899 -2.2782636 301.87
-10.953037 -17.617346 -2.4259236 301.87
-12.997674 -20.906029 -2.2966602 301.87
-15.137576 -24.34794 -2.004801 301.87
-2.4879422 -4.0017152 -2.0979476 301.87
-2.6493988 -4.2614093 -2.0959301 301.87
-2.8348887 -4.5597591 -2.0965917 301.87
-3.0384338 -4.8871498 -2.0945313 301.87
-3.2793746 -5.2746897 -2.0986869 301.87
-3.5412829 -5.6959543 -2.0928679 301.87
-3.8623805 -6.2124224 -2.0976002 301.87
-4.2445936 -6.8271899 -2.1045196 301.87
-4.7071486 -7.5711842 -2.1123838 301.87
-5.2967706 -8.519558 -2.1323423 301.87
-6.0655279 -9.7560606 -2.164428 301.87
-7.1645255 -11.447846 -2.2187815 302.04001
-8.6104584 -13.758231 -2.2810471 302.04001
-11.013692 -17.59824 -2.4277818 302.04001
-13.067041 -20.879187 -2.2979608 302.04001
-15.188582 -24.269094 -2.0020108 302.04001
-2.4988351 -3.9927669 -2.0971341 302.04001
-33.118835 -52.918968 -2.9112778 302.04001
-2.6620309 -4.2535295 -2.0959301 302.04001
-2.8493936 -4.552907 -2.0973191 302.04001
-3.054915 -4.8812995 -2.0958993 302.04001
-3.2990313 -5.2713609 -2.101248 302.04001
-3.5591803 -5.6870403 -2.0934637 302.04001
-3.8828361 -6.2041941 -2.0987029 302.04001
-4.2638049 -6.8129258 -2.104013 302.04001
-4.7347541 -7.565433 -2.1146896 302.04001
-5.3261766 -8.510438 -2.1340055 302.04001
-6.0944481 -9.7380209 -2.164428 302.04001
-7.197298 -11.420273 -2.2178087 302.22
-8.6578627 -13.737815 -2.2821605 302.22
-11.079515 -17.580359 -2.430105 302.22
-13.120892 -20.819502 -2.295917 302.22
-15.331766 -24.327595 -2.0108001 302.22
-2.5113666 -3.9848969 -2.0971341 302.22
-2.6743968 -4.2435842 -2.0951591 302.22
-2.8616965 -4.540781 -2.0958643 302.22
-3.0682309 -4.8684983 -2.0945313 302.22
-3.3155754 -5.2609706 -2.101248 302.22
-3.5760112 -5.6742158 -2.0928679 302.22
-3.902308 -6.1919656 -2.0987029 302.22
-4.2820926 -6.7945867 -2.1024935 302.22
-4.7616115 -7.55546 -2.1160729 302.22
-5.3528867 -8.4936638 -2.1340055 302.22
-6.1271067 -9.7221527 -2.1651685 302.22
-7.2344456 -11.408463 -2.21943 302.38
-8.6951313 -13.711912 -2.281882 302.38
-11.14665 -17.577869 -2.4340541 302.38
-13.183245 -20.789507 -2.2966602 302.38
-15.404984 -24.29311 -2.0114977 302.38
-2.5175922 -3.9701533 -2.0930667 302.38
-2.6911781 -4.2438917 -2.0990133 302.38
-2.8763609 -4.5359187 -2.0973191 302.38
-3.0798013 -4.8567367 -2.0931633 302.38
-3.3211215 -5.2372899 -2.0954859 302.38
-3.5959322 -5.6706572 -2.0952508 302.38
-3.9195838 -6.1810441 -2.0987029 302.38
-4.3041582 -6.7875042 -2.104013 302.38
-4.7858181 -7.5470643 -2.1174562 302.38
-5.3776321 -8.4803343 -2.1344213 302.38
-6.158442 -9.7116432 -2.1666498 302.38
-7.2735724 -11.395266 -2.221051 302.54999
-8.7432365 -13.697739 -2.2838306 302.54999
-11.238301 -17.606674 -2.4426491 302.54999
-13.224513 -20.718407 -2.2931304 302.54999
-15.519934 -24.314566 -2.0170782 302.54999
-2.535259 -3.9719064 -2.0979476 302.54999
-2.6997864 -4.2296662 -2.0959301 302.54999
-2.8867996 -4.5226531 -2.0951366 302.54999
-3.094198 -4.8475776 -2.0931633 302.54999
-3.3427629 -5.2369957 -2.0993273 302.54999
-3.6096599 -5.6551347 -2.0934637 302.54999
-3.943078 -6.1774898 -2.1014593 302.54999
-4.3232374 -6.7730727 -2.1035066 302.54999
-4.8102837 -7.5361123 -2.1183784 302.54999
-5.4038229 -8.4659901 -2.1348372 302.54999
-6.1893449 -9.6966419 -2.1673903 302.54999
-7.3074989 -11.37823 -2.2216995 302.70999
-8.7868042 -13.681602 -2.2852223 302.70999
-11.312114 -17.613665 -2.4479921 302.70999
-13.286623 -20.688099 -2.2938735 302.70999
-15.556506 -24.222448 -2.0130324 302.70999
-2.5463409 -3.9648113 -2.0979476 302.70999
-2.7095928 -4.2190046 -2.0943882 302.70999
-2.9024382 -4.5192766 -2.0973191 302.70999
-3.1117852 -4.8452435 -2.0958993 302.70999
-3.3573742 -5.2276406 -2.0993273 302.70999
-3.6244063 -5.6434259 -2.0928679 302.70999
-3.9540801 -6.1567488 -2.0981514 302.70999
-4.3410888 -6.7593455 -2.1029999 302.70999
-4.8271031 -7.5160999 -2.116534 302.70999
-5.4295578 -8.4541588 -2.135669 302.70999
-6.2195854 -9.6842813 -2.1685014 302.70999
-7.3505502 -11.362221 -2.2233207 302.89999
-8.8439598 -13.67068 -2.2882841 302.89999
-11.359671 -17.559378 -2.4456692 302.89999
-13.340011 -20.620518 -2.2912724 302.89999
-15.682261 -24.241083 -2.0188918 302.89999
-2.555505 -3.9502091 -2.0946937 302.89999
-2.7255735 -4.2130952 -2.0959301 302.89999
-2.9163966 -4.5080628 -2.0965917 302.89999
-3.1268146 -4.8333197 -2.0952153 302.89999
-3.3695455 -5.2085242 -2.0961261 302.89999
-3.6493227 -5.6409941 -2.0964425 302.89999
-3.9744749 -6.1436028 -2.0981514 302.89999
-4.3624291 -6.7432885 -2.1024935 302.89999
-4.854115 -7.5033193 -2.1174562 302.89999
-5.4607506 -8.4410353 -2.1369164 302.89999
-6.2559357 -9.6702042 -2.1699827 302.89999
-7.3896146 -11.34863 -2.224942 303.07001
-8.9006929 -13.669275 -2.2924592 303.07001
-11.37595 -17.470661 -2.4380031 303.07001
-13.392442 -20.567495 -2.2897861 303.07001
-15.130309 -23.236433 -1.9389509 303.07001
