# .PCD v0.7 - Point Cloud Data file format
VERSION 0.7
FIELDS x y z intensity
SIZE 4 4 4 4
TYPE F F F F
COUNT 1 1 1 1
WIDTH 1209
HEIGHT 1
VIEWPOINT 0 0 0 1 0 0 0
POINTS 1209
DATA ascii
10.835835 -2.9014263 -1.311806 194.99001
11.197209 -2.9981887 -1.081448 194.99001
11.894899 -3.1850038 -0.86107391 194.99001
2.9950638 -0.8019647 -1.3804642 194.99001
3.0733407 -0.82292426 -1.3289384 194.99001
12.260664 -3.2829416 -0.29468426 194.99001
4.8247428 -1.2918835 -1.9503686 194.99001
24.43327 -6.5423045 0 194.99001
5.1376715 -1.3756739 -1.9358341 194.99001
24.318527 -6.5115809 0.58449423 194.99001
5.4780259 -1.466808 -1.9162203 194.99001
24.319902 -6.5119491 1.1740887 194.99001
5.7761641 -1.546638 -1.8658874 194.99001
24.321716 -6.512435 1.7606534 194.99001
6.2732902 -1.6797495 -1.862206 194.99001
24.314159 -6.5104117 2.3483081 194.99001
6.9151578 -1.8516175 -1.8740608 194.99001
24.34465 -6.5185757 2.9472079 194.99001
24.268187 -6.4981017 3.5308216 194.99001
8.4716349 -2.268383 -1.8641362 194.99001
24.264458 -6.4971032 4.1269398 194.99001
9.2952442 -2.4889145 -1.8130093 194.99001
24.242437 -6.4912066 4.7284141 194.99001
10.020044 -2.7129984 -1.7055079 195.14999
10.372897 -2.8085361 -1.5103065 195.14999
10.829608 -2.9321935 -1.3120383 195.14999
11.20417 -3.0336089 -1.0829341 195.14999
11.961065 -3.2385435 -0.86651492 195.14999
2.9610679 -0.80173028 -1.3658216 195.14999
12.303155 -3.3311667 -0.59440452 195.14999
3.0728118 -0.83198571 -1.3297092 195.14999
12.187759 -3.2999227 -0.29315233 195.14999
4.8283095 -1.3072991 -1.9532785 195.14999
24.428419 -6.6141686 0 195.14999
5.13381 -1.3900156 -1.9358341 195.14999
24.325338 -6.5862589 0.58509773 195.14999
5.4739084 -1.4820998 -1.9162203 195.14999
24.318979 -6.5845366 1.1749272 195.14999
5.7957797 -1.5692487 -1.8736322 195.14999
24.320768 -6.585021 1.761909 195.14999
6.3019776 -1.7063053 -1.872129 195.14999
24.313185 -6.5829678 2.3499801 195.14999
6.9342384 -1.8774945 -1.8806453 195.14999
24.349361 -6.5927629 2.9499955 195.14999
6.661087 -1.8035368 -1.6351262 195.14999
24.272886 -6.5720568 3.5341618 195.14999
8.4671555 -2.2925427 -1.864552 195.14999
24.278605 -6.5736051 4.132452 195.14999
9.2996407 -2.5179439 -1.8152311 195.14999
24.252672 -6.5665841 4.7339687 195.14999
10.009089 -2.7456889 -1.7051836 195.34
10.346337 -2.8382027 -1.5078014 195.34
10.833235 -2.9717684 -1.3136644 195.34
11.215174 -3.0765414 -1.0849777 195.34
12.036841 -3.3019412 -0.87279302 195.34
3.032397 -0.83184582 -1.3999876 195.34
12.114788 -3.3233235 -0.58583319 195.34
3.1963971 -0.87683421 -1.3844392 195.34
12.147826 -3.3323863 -0.292456 195.34
4.8347273 -1.3262603 -1.9576434 195.34
24.433353 -6.7025471 0 195.34
5.1309848 -1.4075295 -1.9365181 195.34
24.33036 -6.6742935 0.5857476 195.34
5.4707909 -1.5007451 -1.9168606 195.34
24.327835 -6.6736016 1.1764178 195.34
5.773973 -1.5839138 -1.8682704 195.34
24.325733 -6.6730247 1.7638623 195.34
6.2777443 -1.722108 -1.8666161 195.34
24.312346 -6.6693521 2.3520238 195.34
6.9242425 -1.8994552 -1.8796322 195.34
24.335028 -6.6755743 2.9509246 195.34
7.677916 -2.1062026 -1.8864359 195.34
24.273878 -6.6588001 3.5375018 195.34
8.4519596 -2.318538 -1.8628887 195.34
24.269995 -6.6577344 4.1347218 195.34
9.3082981 -2.5534482 -1.8185638 195.34
24.259195 -6.6547718 4.7395234 195.34
9.9766598 -2.7667725 -1.7009685 195.5
10.363182 -2.8739648 -1.5114199 195.5
10.826808 -3.0025396 -1.3138967 195.5
11.191187 -3.1035907 -1.0834916 195.5
3.0582325 -0.84812289 -1.4130031 195.5
12.149739 -3.369421 -0.58797604 195.5
3.3059726 -0.91682738 -1.4330025 195.5
12.082597 -3.3508008 -0.29110977 195.5
4.8238239 -1.3377649 -1.9547335 195.5
5.1324673 -1.4233592 -1.9385701 195.5
24.32704 -6.7464852 0.586119 195.5
5.4684048 -1.5165228 -1.9175007 195.5
24.326431 -6.7463164 1.1772563 195.5
5.7695274 -1.6000316 -1.8682704 195.5
24.324308 -6.7457275 1.7651178 195.5
6.2969947 -1.7463111 -1.8737828 195.5
24.320492 -6.744669 2.3546247 195.5
6.9226403 -1.919818 -1.8806453 195.5
24.331606 -6.7477512 2.9527831 195.5
7.6832566 -2.1307557 -1.8892026 195.5
24.278091 -6.7329106 3.5408421 195.5
8.4322567 -2.3384717 -1.859978 195.5
24.272228 -6.7312846 4.1382885 195.5
9.2821913 -2.5741796 -1.8148608 195.5
24.259457 -6.7277427 4.7432265 195.5
9.9817076 -2.8000932 -1.7032381 195.67
10.367957 -2.9084446 -1.5133682 195.67
10.823589 -3.0362599 -1.3145936 195.67
11.214524 -3.1459255 -1.0866499 195.67
3.2351394 -0.90752918 -1.4959774 195.67
12.282033 -3.4453859 -0.59487039 195.67
3.301461 -0.92613387 -1.4322317 195.67
12.118806 -3.3995969 -0.2922239 195.67
4.7965145 -1.34553 -1.9452763 195.67
24.45019 -6.8588266 0 195.67
5.1282215 -1.4385811 -1.9385701 195.67
24.330019 -6.8251162 0.58667606 195.67
5.463881 -1.5327412 -1.9175007 195.67
24.335161 -6.8265586 1.1786538 195.67
5.7739463 -1.6197214 -1.8712492 195.67
24.327238 -6.8243361 1.7667919 195.67
6.2806787 -1.7618713 -1.8704751 195.67
24.325298 -6.823792 2.3570399 195.67
6.8833814 -1.930943 -1.8715283 195.67
24.328691 -6.8247437 2.9548738 195.67
7.665658 -2.150389 -1.8864359 195.67
24.284704 -6.8124046 3.5447388 195.67
8.430932 -2.3650656 -1.8612255 195.67
24.278751 -6.8107347 4.1428275 195.67
9.2915449 -2.6064868 -1.8181936 195.67
24.254526 -6.8039389 4.7461886 195.67
9.9486742 -2.8226941 -1.699023 195.84
10.364998 -2.9408159 -1.5142033 195.84
10.824088 -3.0710716 -1.3157551 195.84
11.218551 -3.1829908 -1.0879503 195.84
11.953827 -3.3916073 -0.86888665 195.84
3.2640712 -0.92610073 -1.5106199 195.84
12.125688 -3.4403687 -0.58778965 195.84
4.5681114 -1.2960905 -1.9833865 195.84
12.114436 -3.4371762 -0.29236317 195.84
4.8229699 -1.3684002 -1.9576434 195.84
5.1185064 -1.4522516 -1.9365181 195.84
24.334667 -6.9043694 0.5872795 195.84
5.4647775 -1.5504977 -1.9194214 195.84
24.330175 -6.9030948 1.1793993 195.84
5.7782984 -1.6394515 -1.8742279 195.84
24.339512 -6.9057441 1.7691637 195.84
6.286521 -1.7836473 -1.8737828 195.84
24.3241 -6.9013715 2.3588977 195.84
6.8980966 -1.957167 -1.8770998 195.84
24.321711 -6.9006934 2.9564998 195.84
7.6611161 -2.1736553 -1.886897 195.84
24.287249 -6.8909159 3.548079 195.84
8.4238777 -2.3900702 -1.8612255 195.84
24.271727 -6.8865118 4.1450973 195.84
9.2818794 -2.6335073 -1.8178233 195.84
24.260704 -6.8833842 4.7513733 195.84
9.8449125 -2.8267026 -1.6828109 196.02
10.380455 -2.9804695 -1.5178218 196.02
10.814387 -3.1050613 -1.3157551 196.02
11.214237 -3.2198677 -1.0885077 196.02
11.943112 -3.4291446 -0.86888665 196.02
3.2874877 -0.943914 -1.522822 196.02
12.366371 -3.5506721 -0.59999454 196.02
4.567565 -1.3114538 -1.9849281 196.02
12.088203 -3.4708035 -0.2919918 196.02
4.8222284 -1.3845736 -1.9590983 196.02
12.487461 -3.5854397 0 196.02
5.1175313 -1.469362 -1.9378861 196.02
24.335917 -6.9874063 0.58783656 196.02
5.4726276 -1.5713184 -1.9239031 196.02
24.335251 -6.987215 1.1807035 196.02
5.7712846 -1.6570696 -1.8736322 196.02
24.338791 -6.9882312 1.7706983 196.02
6.3012128 -1.8092244 -1.8798468 196.02
24.327183 -6.9848981 2.3613131 196.02
6.8937736 -1.9793622 -1.8776063 196.02
24.330462 -6.9858398 2.9602168 196.02
7.652379 -2.1971755 -1.8864359 196.02
24.290228 -6.9742875 3.5516975 196.02
8.3956432 -2.410584 -1.8566514 196.02
24.284117 -6.9725332 4.1509337 196.02
9.2848949 -2.6659086 -1.8200451 196.02
24.265406 -6.9671607 4.7565575 196.02
9.7203779 -2.8240306 -1.6630323 196.2
10.35963 -3.0097506 -1.5161518 196.2
10.800764 -3.137912 -1.3152905 196.2
11.228927 -3.2623048 -1.0909228 196.2
11.95144 -3.4722142 -0.87028176 196.2
3.3406515 -0.97054899 -1.5488532 196.2
12.284171 -3.5688815 -0.59654737 196.2
4.5651946 -1.3263116 -1.9856991 196.2
12.146362 -3.5288446 -0.29366297 196.2
4.8142767 -1.3986766 -1.9576434 196.2
12.141953 -3.5275636 0 196.2
5.1092806 -1.4843832 -1.9365181 196.2
24.340727 -7.0716348 0.58848649 196.2
5.4713035 -1.5895606 -1.9251835 196.2
24.330448 -7.0686483 1.181542 196.2
5.7642164 -1.6746597 -1.8730364 196.2
24.349287 -7.0741215 1.7730701 196.2
6.2530355 -1.8166748 -1.8671675 196.2
24.324242 -7.0668454 2.3631709 196.2
6.8838053 -1.9999304 -1.8765932 196.2
24.31221 -7.0633497 2.9606812 196.2
7.6136684 -2.2119751 -1.8785969 196.2
24.294825 -7.0582991 3.5555944 196.2
24.27915 -7.0537448 4.153852 196.2
9.2802486 -2.6961613 -1.8207858 196.2
24.26416 -7.0493898 4.7606306 196.2
9.7214231 -2.8556402 -1.6646534 196.37
10.360155 -3.0432658 -1.5175434 196.37
10.800936 -3.1727438 -1.316452 196.37
11.230661 -3.2989748 -1.0920376 196.37
11.996598 -3.5239663 -0.87432766 196.37
4.3106852 -1.2662514 -2.0003309 196.37
12.277361 -3.6064398 -0.59673369 196.37
4.5736337 -1.3434919 -1.9910949 196.37
12.09747 -3.5535975 -0.29273453 196.37
4.8172555 -1.415055 -1.9605533 196.37
5.1102633 -1.5011252 -1.9385701 196.37
24.342659 -7.1505861 0.58904356 196.37
5.4538374 -1.6020491 -1.920702 196.37
24.341953 -7.1503792 1.1831259 196.37
5.7683816 -1.6944456 -1.8760152 196.37
24.347332 -7.1519594 1.7744652 196.37
6.2660637 -1.8406383 -1.8726802 196.37
24.331825 -7.1474042 2.3659575 196.37
6.8499956 -2.0121667 -1.8689957 196.37
24.325453 -7.1455321 2.9648628 196.37
7.5006399 -2.2032914 -1.8523132 196.37
24.294678 -7.1364918 3.5586562 196.37
7.6825213 -2.2567186 -1.7019651 196.37
24.292196 -7.1357632 4.159688 196.37
9.294837 -2.7303317 -1.8252294 196.37
24.261993 -7.1268916 4.7643337 196.37
9.8320961 -2.9198675 -1.6850806 196.53999
10.413733 -3.092598 -1.5267289 196.53999
10.804804 -3.2087355 -1.3180782 196.53999
11.197916 -3.3254793 -1.0898082 196.53999
12.022429 -3.5703371 -0.8769784 196.53999
4.3139153 -1.2811165 -2.0035846 196.53999
12.212982 -3.6269264 -0.59412503 196.53999
4.562551 -1.3549546 -1.9880116 196.53999
12.596723 -3.7408872 -0.30508268 196.53999
4.8005342 -1.4256293 -1.9554609 196.53999
12.711317 -3.7749186 0 196.53999
5.1075888 -1.5168161 -1.9392542 196.53999
24.346252 -7.2301807 0.589647 196.53999
5.4672236 -1.623618 -1.9271042 196.53999
24.345528 -7.2299652 1.184337 196.53999
5.7706494 -1.7137274 -1.8783982 196.53999
24.348955 -7.2309833 1.7761394 196.53999
6.2624178 -1.8597692 -1.8732314 196.53999
24.329601 -7.2252359 2.3678155 196.53999
6.8940735 -2.047354 -1.8826712 196.53999
24.332708 -7.2261581 2.9683473 196.53999
7.5127254 -2.231077 -1.8569243 196.53999
24.299976 -7.2164378 3.5625529 196.53999
7.6289077 -2.2655799 -1.6915696 196.53999
24.299295 -7.2162356 4.1645517 196.53999
9.292347 -2.7595766 -1.8263403 196.53999
24.276539 -7.2094779 4.7713695 196.53999
9.9349117 -2.9825065 -1.7042109 196.71001
10.455728 -3.1388578 -1.5342443 196.71001
10.799041 -3.2419221 -1.3185427 196.71001
11.134597 -3.3426576 -1.0846063 196.71001
12.009871 -3.6054189 -0.87683886 196.71001
4.3293443 -1.2996893 -2.0125329 196.71001
12.433697 -3.7326531 -0.60539824 196.71001
4.5549755 -1.3674247 -1.9864699 196.71001
12.292568 -3.6902859 -0.29798019 196.71001
4.8069892 -1.4430804 -1.9598258 196.71001
13.016126 -3.9075012 0 196.71001
5.1012659 -1.5314236 -1.9385701 196.71001
24.349588 -7.3098593 0.59025049 196.71001
5.4696412 -1.6420116 -1.9296652 196.71001
24.348845 -7.3096356 1.1855482 196.71001
5.7618823 -1.7297437 -1.8772067 196.71001
24.356056 -7.311801 1.778232 196.71001
6.2568722 -1.878342 -1.8732314 196.71001
24.336666 -7.3059797 2.3706021 196.71001
6.8842621 -2.0666873 -1.8816583 196.71001
24.328283 -7.3034635 2.970438 196.71001
7.5135283 -2.2555959 -1.8587688 196.71001
24.299324 -7.2947693 3.5656149 196.71001
7.6877313 -2.3078926 -1.7061234 196.71001
24.29101 -7.2922735 4.1668215 196.71001
9.2747059 -2.7843099 -1.8244888 196.71001
24.275749 -7.2876921 4.7754426 196.71001
7.7504525 -2.3518128 -1.3306851 196.88
10.448264 -3.1704419 -1.5345227 196.88
10.791276 -3.2745261 -1.3187751 196.88
11.263736 -3.4178903 -1.0981685 196.88
11.999121 -3.641037 -0.87683886 196.88
4.3429527 -1.3178343 -2.0206676 196.88
12.37095 -3.7538655 -0.60288268 196.88
4.5561962 -1.3825412 -1.9887824 196.88
4.7902074 -1.45355 -1.9547335 196.88
5.1038933 -1.5487354 -1.9413064 196.88
24.350752 -7.3890405 0.59080756 196.88
5.4738107 -1.6609839 -1.9328663 196.88
24.349989 -7.3888092 1.1866663 196.88
5.7512436 -1.7451688 -1.8754194 196.88
24.353348 -7.3898277 1.7796272 196.88
6.2531114 -1.8974565 -1.8737828 196.88
24.337748 -7.3850946 2.3728316 196.88
6.837368 -2.0747445 -1.8705152 196.88
24.331219 -7.3831134 2.9734578 196.88
7.5030785 -2.2767489 -1.8578465 196.88
24.306002 -7.3754611 3.5697901 196.88
7.7051859 -2.3380768 -1.711529 196.88
24.293818 -7.3717637 4.1710367 196.88
7.6564913 -2.3233008 -1.5075084 196.88
24.28223 -7.368248 4.7809973 196.88
9.9410343 -3.0506661 -1.708426 197.06
10.506413 -3.2241676 -1.544543 197.06
10.79233 -3.3119082 -1.3201689 197.06
11.254846 -3.4538436 -1.0983542 197.06
12.027678 -3.6910069 -0.87976867 197.06
4.3335514 -1.3298634 -2.0182273 197.06
12.143274 -3.726481 -0.59235483 197.06
4.5553589 -1.3979309 -1.9903241 197.06
12.636801 -3.8779325 -0.30689311 197.06
4.7998652 -1.472964 -1.9605533 197.06
24.488846 -7.5150423 0 197.06
5.0828323 -1.5597999 -1.93515 197.06
24.358002 -7.4748898 0.59155029 197.06
5.4685655 -1.6781722 -1.9328663 197.06
24.355307 -7.474062 1.1880637 197.06
5.7402573 -1.7615479 -1.8736322 197.06
24.354807 -7.4739089 1.7814409 197.06
6.259985 -1.9210399 -1.8776417 197.06
24.337273 -7.4685278 2.375061 197.06
6.8474636 -2.1013231 -1.8750738 197.06
24.330692 -7.4665089 2.9762454 197.06
7.454958 -2.2877486 -1.8477019 197.06
24.313004 -7.4610806 3.5742435 197.06
7.5033002 -2.3025837 -1.6682835 197.06
24.302612 -7.4578915 4.1765485 197.06
7.6303649 -2.3415768 -1.5038053 197.06
24.277752 -7.4502621 4.7847004 197.06
9.9381313 -3.0801675 -1.7093987 197.22
10.453859 -3.2400091 -1.5381411 197.22
10.781141 -3.3414452 -1.3199365 197.22
11.290808 -3.499408 -1.102813 197.22
12.030663 -3.7287147 -0.88074523 197.22
4.3350563 -1.3435825 -2.0206676 197.22
12.069847 -3.7408593 -0.58928037 197.22
4.5567255 -1.4122854 -1.9926367 197.22
12.165652 -3.7705524 -0.29570553 197.22
4.8064103 -1.4896712 -1.9649181 197.22
12.646518 -3.9195893 0 197.22
5.0587101 -1.5678675 -1.9276255 197.22
24.358042 -7.5493917 0.59206092 197.22
5.4548087 -1.6906321 -1.9296652 197.22
24.35533 -7.5485516 1.1890886 197.22
5.7371392 -1.778136 -1.8742279 197.22
24.364332 -7.5513411 1.783673 197.22
6.2509232 -1.9373753 -1.8765391 197.22
24.342951 -7.5447145 2.3776619 197.22
6.8489609 -2.1227276 -1.8770998 197.22
24.332516 -7.5414805 2.979033 197.22
7.3983507 -2.2930024 -1.8352517 197.22
24.314775 -7.5359821 3.5775838 197.22
7.5472932 -2.3391647 -1.6795106 197.22
24.309967 -7.5344915 4.1814122 197.22
7.6613426 -2.3745127 -1.5112114 197.22
24.279379 -7.5250115 4.789144 197.22
9.9434719 -3.1160951 -1.7119926 197.39999
10.364252 -3.2479599 -1.5264505 197.39999
10.7668 -3.3741105 -1.319472 197.39999
11.272157 -3.53248 -1.10207 197.39999
11.938929 -3.7414334 -0.87488568 197.39999
4.334301 -1.3582876 -2.0222945 197.39999
12.048504 -3.7757721 -0.5888145 197.39999
3.1152647 -0.97626477 -1.3636264 197.39999
12.186182 -3.818918 -0.29649469 197.39999
4.798151 -1.5036495 -1.9634632 197.39999
5.0914207 -1.5955545 -1.9419904 197.39999
24.355192 -7.6324549 0.59257156 197.39999
5.4476624 -1.707194 -1.9290249 197.39999
24.358185 -7.6333928 1.1903929 197.39999
5.738812 -1.7984347 -1.8766109 197.39999
24.363335 -7.635006 1.7853472 197.39999
6.241137 -1.9558537 -1.8754365 197.39999
24.347631 -7.630085 2.3804488 197.39999
6.8348737 -2.1419196 -1.8750738 197.39999
24.339033 -7.6273904 2.9827499 197.39999
7.4561076 -2.3366024 -1.8513908 197.39999
24.324999 -7.6229925 3.5825939 197.39999
7.4428349 -2.332443 -1.6578878 197.39999
24.310659 -7.6184988 4.1856275 197.39999
7.6594715 -2.4003329 -1.5123223 197.39999
24.296879 -7.6141806 4.7972908 197.39999
7.5672884 -2.3961251 -1.3040974 197.57001
10.390445 -3.2900562 -1.5317391 197.57001
10.754848 -3.4054415 -1.3192396 197.57001
11.263525 -3.5665107 -1.1022557 197.57001
11.901146 -3.7684085 -0.87293249 197.57001
12.124861 -3.839246 -0.59310019 197.57001
3.0771666 -0.97436172 -1.3482095 197.57001
12.405446 -3.9280913 -0.30211172 197.57001
4.7812362 -1.5139425 -1.9583708 197.57001
24.481998 -7.7520413 0 197.57001
5.1063728 -1.6168946 -1.9495149 197.57001
24.361032 -7.713738 0.59326792 197.57001
5.4425731 -1.7233499 -1.9290249 197.57001
24.358286 -7.7128682 1.1915109 197.57001
5.7334509 -1.8154541 -1.8766109 197.57001
24.365299 -7.7150893 1.7871609 197.57001
6.2298079 -1.9726219 -1.8737828 197.57001
24.345768 -7.7089047 2.3824923 197.57001
6.7749968 -2.1452518 -1.8603852 197.57001
24.340914 -7.7073679 2.9857697 197.57001
7.4639845 -2.3634148 -1.8550798 197.57001
24.321156 -7.7011113 3.5853775 197.57001
7.4135013 -2.3474295 -1.652898 197.57001
24.308643 -7.6971493 4.1891942 197.57001
24.296665 -7.693357 4.8017344 197.57001
7.5582657 -2.4179657 -1.3037732 197.74001
10.408933 -3.3299229 -1.5359143 197.74001
10.744696 -3.4373369 -1.3192396 197.74001
11.26617 -3.6041617 -1.1035562 197.74001
11.823403 -3.7824266 -0.86804956 197.74001
12.442606 -3.9805155 -0.60921806 197.74001
2.9600098 -0.94693714 -1.2981045 197.74001
12.205202 -3.9045677 -0.29751596 197.74001
4.7767229 -1.5281221 -1.9583708 197.74001
24.491274 -7.8350062 0 197.74001
5.0979729 -1.6308931 -1.9481467 197.74001
24.362795 -7.7939043 0.59387141 197.74001
5.4320221 -1.7377588 -1.9271042 197.74001
24.369545 -7.7960639 1.193188 197.74001
5.7516785 -1.8400202 -1.8843557 197.74001
24.367004 -7.7952514 1.7889745 197.74001
6.2074475 -1.9858253 -1.8688213 197.74001
24.349342 -7.7896008 2.3850932 197.74001
6.812829 -2.179493 -1.8725412 197.74001
24.342535 -7.7874231 2.9887898 197.74001
7.4940109 -2.3974099 -1.8643022 197.74001
24.322721 -7.7810845 3.5889959 197.74001
7.3263831 -2.3437841 -1.6350175 197.74001
24.312014 -7.7776594 4.1937337 197.74001
7.5327754 -2.409811 -1.4901041 197.74001
24.296196 -7.7725987 4.8061781 197.74001
9.9303646 -3.2093344 -1.7145866 197.91
10.406545 -3.3632283 -1.5370277 197.91
10.732559 -3.468591 -1.3190073 197.91
11.257321 -3.6381855 -1.103742 197.91
11.844402 -3.8279209 -0.87042129 197.91
11.947883 -3.8613639 -0.58555365 197.91
2.9501631 -0.95344537 -1.2950211 197.91
11.910081 -3.8491468 -0.29059914 197.91
4.7881227 -1.5474443 -1.9649181 197.91
11.911387 -3.8495691 0 197.91
5.0877466 -1.644278 -1.9460946 197.91
11.885347 -3.8411534 0.28999567 197.91
5.4250393 -1.7532856 -1.9264641 197.91
11.892753 -3.8435469 0.58285183 197.91
5.7316604 -1.8523806 -1.8795897 197.91
24.370348 -7.8761053 1.7909276 197.91
6.2106748 -2.0071905 -1.8715776 197.91
24.354546 -7.8709979 2.3878801 197.91
6.8321066 -2.2080274 -1.8796322 197.91
24.347675 -7.8687778 2.9922743 197.91
7.4572358 -2.410059 -1.8569243 197.91
24.331566 -7.8635712 3.5937278 197.91
24.318876 -7.8594708 4.1989212 197.91
7.5873079 -2.4520962 -1.5023241 197.91
24.297338 -7.85251 4.8109922 197.91
7.6844916 -2.5087104 -1.3280913 198.08
10.405934 -3.3971636 -1.5384195 198.08
10.718444 -3.4991868 -1.3185427 198.08
11.237012 -3.6684806 -1.102813 198.08
11.774198 -3.8438525 -0.86609638 198.08
2.9214265 -0.95374084 -1.3682621 198.08
12.326273 -4.0240855 -0.30104402 198.08
4.7711129 -1.5575969 -1.9598258 198.08
24.497583 -7.997581 0 198.08
5.089992 -1.6616994 -1.9488307 198.08
24.378839 -7.9588156 0.59540331 198.08
5.4126086 -1.7670221 -1.9239031 198.08
11.864204 -3.8732364 0.58201331 198.08
5.7370286 -1.8729336 -1.8831642 198.08
24.37532 -7.9576664 1.7930204 198.08
6.1791058 -2.017256 -1.8638598 198.08
24.365158 -7.9543486 2.3912241 198.08
6.8310432 -2.2300901 -1.8811518 198.08
24.34877 -7.9489985 2.9952941 198.08
7.4482021 -2.4315703 -1.8564632 198.08
24.330719 -7.9431057 3.5970681 198.08
7.4536834 -2.4333599 -1.6666201 198.08
24.317965 -7.9389415 4.2028122 198.08
7.568789 -2.4709375 -1.5001023 198.08
24.303827 -7.9343266 4.8169169 198.08
7.5809898 -2.5013027 -1.311555 198.25999
10.402734 -3.4323201 -1.5395329 198.25999
10.74324 -3.5446684 -1.3229564 198.25999
11.217867 -3.7012687 -1.10207 198.25999
11.807536 -3.8958263 -0.86944467 198.25999
2.9357667 -0.96863884 -1.3763968 198.25999
11.918381 -3.9323988 -0.58527416 198.25999
11.931916 -3.9368649 -0.29171327 198.25999
4.7679653 -1.5731618 -1.9605533 198.25999
11.923736 -3.934166 0 198.25999
5.0722532 -1.6735599 -1.9440424 198.25999
24.372704 -8.0416288 0.59586751 198.25999
5.4124284 -1.7857987 -1.9258238 198.25999
24.369881 -8.0406981 1.1967282 198.25999
5.7564993 -1.8993227 -1.8915046 198.25999
24.376726 -8.0429564 1.7949736 198.25999
6.1818666 -2.0396702 -1.8666161 198.25999
24.360851 -8.0377178 2.3932679 198.25999
6.811142 -2.2472959 -1.8776063 198.25999
24.353861 -8.0354118 2.999011 198.25999
7.4017158 -2.4421523 -1.8467797 198.25999
24.333857 -8.0288115 3.6012433 198.25999
7.4125619 -2.4457307 -1.6591353 198.25999
24.324764 -8.0258112 4.2083244 198.25999
7.3911419 -2.4386635 -1.4664046 198.25999
24.304911 -8.0192614 4.8221011 198.25999
7.3380494 -2.4438894 -1.2707006 198.42
10.383713 -3.4582276 -1.5381411 198.42
10.750262 -3.5803044 -1.3250471 198.42
11.207488 -3.7325804 -1.10207 198.42
11.806075 -3.931936 -0.87014228 198.42
2.9382508 -0.97856522 -1.3788372 198.42
12.411548 -4.133585 -0.61005658 198.42
4.5279007 -1.5079877 -1.9934075 198.42
12.423586 -4.1375942 -0.30401498 198.42
4.7635536 -1.5864704 -1.9605533 198.42
11.859572 -3.949753 0 198.42
5.0675597 -1.6877177 -1.9440424 198.42
5.4128137 -1.8027022 -1.9277445 198.42
5.74755 -1.914184 -1.8903131 198.42
24.371206 -8.1166706 1.7962292 198.42
6.1816187 -2.0587478 -1.86827 198.42
24.360983 -8.113266 2.3954973 198.42
6.790154 -2.2614164 -1.8735542 198.42
24.353943 -8.1109209 3.0017986 198.42
7.32655 -2.4400597 -1.8297184 198.42
24.332012 -8.1036177 3.604305 198.42
7.4799457 -2.491147 -1.6757683 198.42
24.32847 -8.102438 4.2128639 198.42
7.4402447 -2.4779248 -1.4775137 198.42
24.308529 -8.0957966 4.8272853 198.42
9.9240818 -3.3417506 -1.7204229 198.61
10.34591 -3.4837937 -1.5342443 198.61
10.757156 -3.6222732 -1.3273702 198.61
11.202598 -3.7722673 -1.102813 198.61
11.804317 -3.974885 -0.87097931 198.61
12.577642 -4.2352881 -0.61890739 198.61
4.5246239 -1.5235834 -1.9941783 198.61
4.7653289 -1.6046363 -1.9634632 198.61
24.485106 -8.2449064 0 198.61
5.0441241 -1.6985155 -1.9372021 198.61
24.387554 -8.2120571 0.59744585 198.61
5.4050102 -1.8200371 -1.9271042 198.61
24.392258 -8.2136412 1.2002686 198.61
5.7447896 -1.9344516 -1.8915046 198.61
24.376301 -8.2082682 1.7986009 198.61
6.1692915 -2.0773947 -1.8666161 198.61
24.369801 -8.2060795 2.3990271 198.61
6.8009539 -2.2900953 -1.8786192 198.61
24.36268 -8.2036819 3.0062125 198.61
7.2981305 -2.4575102 -1.824646 198.61
24.336914 -8.1950054 3.6090369 198.61
7.4920378 -2.522805 -1.6803423 198.61
24.335135 -8.1944065 4.2186999 198.61
7.3891459 -2.488158 -1.4689968 198.61
24.318802 -8.1889067 4.8346915 198.61
9.9277906 -3.3738961 -1.7226926 198.77
10.32864 -3.5101223 -1.5331309 198.77
10.767688 -3.6593297 -1.3299255 198.77
11.205217 -3.8080213 -1.1041136 198.77
11.810171 -4.0136113 -0.87223494 198.77
2.7696056 -0.94123274 -1.3023708 198.77
12.488212 -4.2440386 -0.61508757 198.77
4.5186043 -1.5356188 -1.9934075 198.77
12.186049 -4.1413507 -0.29881576 198.77
4.7714128 -1.6215341 -1.967828 198.77
24.497965 -8.3254766 0 198.77
5.0464792 -1.7150136 -1.9399383 198.77
24.389137 -8.2884922 0.59804934 198.77
5.4017005 -1.8357333 -1.9277445 198.77
24.393816 -8.290082 1.2014798 198.77
5.7429805 -1.9517151 -1.8926961 198.77
24.37784 -8.2846527 1.8004146 198.77
6.1689272 -2.0964704 -1.86827 198.77
24.365644 -8.280508 2.4008849 198.77
6.825675 -2.3196619 -1.8872298 198.77
24.362247 -8.2793531 3.0090001 198.77
7.4718156 -2.5392487 -1.8698356 198.77
24.343937 -8.2731314 3.6134903 198.77
7.5016336 -2.5493822 -1.6840847 198.77
24.33271 -8.2693157 4.2222667 198.77
7.3486724 -2.4973993 -1.4623313 198.77
24.308865 -8.2612123 4.8372836 198.77
7.6291718 -2.6180012 -1.3251731 198.94
10.333166 -3.5458951 -1.5353576 198.94
10.781209 -3.6996439 -1.3329455 198.94
11.190103 -3.8399584 -1.103742 198.94
11.849163 -4.0661192 -0.87600178 198.94
2.7685289 -0.95003921 -1.3031842 198.94
12.547371 -4.3057141 -0.61862791 198.94
4.5122828 -1.54842 -1.9926367 198.94
12.404435 -4.2566648 -0.30447921 198.94
4.7736292 -1.6381028 -1.9707379 198.94
24.503424 -8.4085131 0 198.94
5.0502567 -1.7330292 -1.9433584 198.94
24.390915 -8.3699055 0.59869921 198.94
5.3998141 -1.8529824 -1.9290249 198.94
24.397457 -8.3721504 1.2028773 198.94
5.7425818 -1.9706054 -1.8944833 198.94
24.379572 -8.3660135 1.8023678 198.94
6.1681352 -2.1166368 -1.8699238 198.94
24.37299 -8.3637543 2.4040432 198.94
6.8224225 -2.3411598 -1.8882428 198.94
24.365757 -8.3612728 3.0124846 198.94
7.4035039 -2.5405619 -1.8546187 198.94
24.349257 -8.3556099 3.617944 198.94
7.3182507 -2.5113065 -1.6445814 198.94
24.337934 -8.3517246 4.2274547 198.94
7.4062958 -2.5415199 -1.4752918 198.94
24.315849 -8.3441467 4.8435788 198.94
9.9442892 -3.4474068 -1.7291775 199.12
10.336946 -3.5835299 -1.5375844 199.12
10.793933 -3.7419543 -1.3359653 199.12
11.149761 -3.8653102 -1.1009552 199.12
11.862721 -4.1124735 -0.87795496 199.12
2.7879725 -0.96651208 -1.3137593 199.12
12.546996 -4.3496923 -0.6192801 199.12
4.5213451 -1.5674239 -1.9988034 199.12
12.385334 -4.2936487 -0.30433995 199.12
4.7702198 -1.6537017 -1.9714655 199.12
24.448542 -8.475625 0 199.12
5.0412359 -1.7476554 -1.9419904 199.12
24.402283 -8.4595881 0.59962767 199.12
5.3993373 -1.8717991 -1.9309456 199.12
24.399349 -8.4585714 1.2042748 199.12
5.7399707 -1.9898871 -1.8956748 199.12
24.3871 -8.4543257 1.804879 199.12
6.1614552 -2.136004 -1.8699238 199.12
24.378578 -8.4513712 2.4072015 199.12
24.367523 -8.4475384 3.015969 199.12
7.3623886 -2.5523341 -1.8463186 199.12
24.356569 -8.4437408 3.6229541 199.12
7.5690975 -2.6239944 -1.7027967 199.12
24.339548 -8.4378405 4.2323184 199.12
7.4502707 -2.5828004 -1.4856604 199.12
24.321085 -8.4314394 4.849874 199.12
9.9383488 -3.4764662 -1.7298259 199.28
10.351202 -3.6208835 -1.5412029 199.28
10.798441 -3.7773292 -1.3378237 199.28
11.084414 -3.8773632 -1.0955675 199.28
11.79846 -4.1271391 -0.87404859 199.28
4.2960305 -1.5027652 -2.0263619 199.28
12.555544 -4.3919692 -0.62030488 199.28
4.5064988 -1.5763876 -1.9941783 199.28
12.422366 -4.3453832 -0.30554691 199.28
4.7603073 -1.6651708 -1.969283 199.28
24.502178 -8.57094 0 199.28
5.0434318 -1.7642086 -1.9447266 199.28
24.403099 -8.5362816 0.60023117 199.28
5.3869352 -1.8843671 -1.9283848 199.28
24.398262 -8.5345898 1.2053927 199.28
5.7379956 -2.0071692 -1.8968663 199.28
24.389761 -8.5316162 1.8068322 199.28
6.1736131 -2.1595495 -1.8754365 199.28
24.381199 -8.5286207 2.4098027 199.28
6.6330857 -2.3202746 -1.8396186 199.28
24.38134 -8.5286703 3.0206151 199.28
7.4176893 -2.5947313 -1.8619965 199.28
24.357199 -8.5202255 3.6265726 199.28
7.5580473 -2.6438291 -1.7019651 199.28
24.347559 -8.5168533 4.2378302 199.28
7.5784578 -2.6509688 -1.5126926 199.28
24.325274 -8.509058 4.8554287 199.28
9.9360695 -3.5126929 -1.7314471 199.47
10.365279 -3.6644311 -1.5450997 199.47
10.785856 -3.8131175 -1.3378237 199.47
11.135329 -3.9366665 -1.1018841 199.47
4.2910237 -1.5170031 -2.0263619 199.47
4.5082064 -1.5937835 -1.9972618 199.47
12.566238 -4.4425349 -0.30944631 199.47
4.7582722 -1.6821892 -1.9707379 199.47
24.458536 -8.6468124 0 199.47
5.0393257 -1.7815498 -1.9454106 199.47
24.399164 -8.6258221 0.60083461 199.47
5.3735108 -1.8996942 -1.9258238 199.47
24.401848 -8.626771 1.2069765 199.47
5.731308 -2.026186 -1.8968663 199.47
24.389551 -8.6224241 1.8089249 199.47
6.1791058 -2.1844957 -1.8792955 199.47
24.379066 -8.6187172 2.4124036 199.47
6.6235309 -2.3416131 -1.839112 199.47
24.367907 -8.6147718 3.0224736 199.47
7.4604192 -2.6374776 -1.8749079 199.47
24.347483 -8.6075516 3.6293561 199.47
7.6193266 -2.6936562 -1.7177664 199.47
24.347092 -8.6074133 4.2426939 199.47
7.5214467 -2.6590526 -1.5030648 199.47
24.324718 -8.5995035 4.8609829 199.47
9.9355154 -3.543741 -1.7330683 199.63
10.360602 -3.6953583 -1.5459348 199.63
10.773294 -3.842555 -1.3375914 199.63
11.156178 -3.9791195 -1.1050425 199.63
4.2867703 -1.5289799 -2.0263619 199.63
11.931976 -4.2558265 -0.59077102 199.63
4.5106907 -1.6088465 -2.000345 199.63
4.7535563 -1.6954703 -1.9707379 199.63
24.338223 -8.6808128 0 199.63
5.0325608 -1.794984 -1.9447266 199.63
24.406996 -8.7053432 0.60162377 199.63
5.3842468 -1.9204212 -1.9315859 199.63
24.411531 -8.7069607 1.2086536 199.63
5.7256274 -2.0421829 -1.8968663 199.63
24.395445 -8.7012224 1.8111571 199.63
6.1729817 -2.2017426 -1.8792955 199.63
24.390541 -8.6994734 2.4159334 199.63
6.555006 -2.3380008 -1.821891 199.63
24.375561 -8.6941309 3.0264225 199.63
7.4988503 -2.6746454 -1.8864359 199.63
24.360661 -8.6888161 3.634923 199.63
7.6209879 -2.7182088 -1.7198455 199.63
24.352701 -8.6859779 4.2478819 199.63
7.5639739 -2.6978736 -1.513063 199.63
24.332079 -8.6786222 4.8672781 199.63
9.9317608 -3.5776122 -1.7343652 199.81
10.360122 -3.731916 -1.5476049 199.81
10.798548 -3.8898456 -1.3422375 199.81
11.132381 -4.0100989 -1.1039277 199.81
10.93575 -3.9392684 -0.81280243 199.81
4.2888217 -1.5449165 -2.0296159 199.81
12.031323 -4.3339152 -0.59636104 199.81
4.502142 -1.6217585 -1.9988034 199.81
12.654404 -4.5583611 -0.31227803 199.81
4.7517118 -1.7116584 -1.9721929 199.81
24.483942 -8.8195887 0 199.81
5.0304332 -1.8120592 -1.9460946 199.81
24.402102 -8.7901077 0.60218084 199.81
5.372839 -1.9354005 -1.9296652 199.81
24.399096 -8.7890253 1.209399 199.81
5.7245722 -2.0621016 -1.8986536 199.81
24.399899 -8.7893152 1.8135288 199.81
6.1461377 -2.2139575 -1.8732314 199.81
24.398687 -8.7888784 2.4194634 199.81
6.4875584 -2.3369439 -1.8051764 199.81
24.383636 -8.7834568 3.0308363 199.81
7.4940724 -2.6995096 -1.8873581 199.81
24.359329 -8.7747011 3.6388199 199.81
7.5038199 -2.7030208 -1.6953119 199.81
24.351288 -8.7718048 4.2524209 199.81
7.572103 -2.7276177 -1.5163957 199.81
24.336128 -8.7663441 4.8735733 199.81
9.9167957 -3.6015801 -1.7333926 199.96001
10.320531 -3.7482085 -1.5431514 199.96001
10.777124 -3.9140341 -1.3408437 199.96001
11.129332 -4.0419488 -1.1046709 199.96001
4.2796106 -1.5542681 -2.0271754 199.96001
11.16365 -4.0544119 -0.55387694 199.96001
4.5013499 -1.6347994 -2.000345 199.96001
4.7384591 -1.7209127 -1.9685556 199.96001
24.423172 -8.8700027 0 199.96001
5.025672 -1.8252226 -1.9460946 199.96001
24.405315 -8.8635178 0.60283077 199.96001
5.371316 -1.9507535 -1.9309456 199.96001
24.447359 -8.878787 1.2129393 199.96001
5.7317157 -2.0816436 -1.9028239 199.96001
6.1348996 -2.2280717 -1.8715776 199.96001
24.407413 -8.8642797 2.4226217 199.96001
6.5941701 -2.3948696 -1.8365796 199.96001
24.394167 -8.8594694 3.0350177 199.96001
7.4906378 -2.7204485 -1.8882804 199.96001
24.360474 -8.8472328 3.6424384 199.96001
7.559236 -2.745362 -1.7094499 199.96001
24.361631 -8.8476524 4.2582574 199.96001
7.5132103 -2.7286463 -1.5060271 199.96001
24.342653 -8.8407602 4.8794985 199.96001
9.9344416 -3.645323 -1.7385805 200.14999
10.335935 -3.7926459 -1.5473266 200.14999
10.775275 -3.9538565 -1.3422375 200.14999
11.089694 -4.0692286 -1.10207 200.14999
11.814974 -4.3353615 -0.88004768 200.14999
4.2727175 -1.567822 -2.0263619 200.14999
4.4993691 -1.6509889 -2.0018868 200.14999
4.7362242 -1.7379 -1.9700105 200.14999
24.502523 -8.9909039 0 200.14999
5.017827 -1.8412309 -1.9454106 200.14999
24.379543 -8.9457779 0.60292357 200.14999
5.3559237 -1.9652911 -1.9277445 200.14999
24.455292 -8.9735727 1.2148026 200.14999
5.7229891 -2.0999813 -1.9022281 200.14999
24.354805 -8.9367008 1.8140869 200.14999
6.1238675 -2.2470789 -1.8704751 200.14999
24.377884 -8.9451694 2.4226217 200.14999
6.5771103 -2.4133909 -1.834047 200.14999
24.392628 -8.9505787 3.0385022 200.14999
7.4669595 -2.7399104 -1.8845913 200.14999
24.366329 -8.9409294 3.647727 200.14999
8.2975702 -3.0446928 -1.87869 200.14999
24.358095 -8.9379082 4.2627969 200.14999
24.342724 -8.9322681 4.8854232 200.14999
9.9205217 -3.6716809 -1.737932 200.31
10.340162 -3.8269939 -1.5495533 200.31
10.758603 -3.9818628 -1.3415406 200.31
10.913943 -4.0393558 -1.0857209 200.31
11.099293 -4.1079555 -0.82759082 200.31
4.2683229 -1.5797474 -2.0263619 200.31
11.867513 -4.3922811 -0.59011883 200.31
4.49301 -1.6629065 -2.001116 200.31
4.7226167 -1.7478861 -1.9663731 200.31
24.424803 -9.039855 0 200.31
5.0038533 -1.8519745 -1.9419904 200.31
24.376968 -9.0221519 0.60348064 200.31
5.3468604 -1.9789248 -1.9264641 200.31
24.46199 -9.0536184 1.2163864 200.31
5.715312 -2.1152921 -1.9016324 200.31
24.352207 -9.0129871 1.815761 200.31
6.1392045 -2.2721789 -1.8770903 200.31
24.386425 -9.0256519 2.4259658 200.31
6.6864738 -2.4747286 -1.8664632 200.31
24.389893 -9.0269346 3.0412898 200.31
7.4738798 -2.7661552 -1.8882804 200.31
24.365412 -9.0178747 3.6513455 200.31
8.2174835 -3.0413699 -1.8624729 200.31
24.362654 -9.0168533 4.2679849 200.31
7.7157459 -2.8556721 -1.5500933 200.31
24.343491 -9.0097609 4.8906074 200.31
9.9311218 -3.7111189 -1.7418228 200.49001
10.341075 -3.8643126 -1.5515018 200.49001
10.766509 -4.0232911 -1.3440958 200.49001
10.917988 -4.0798965 -1.087393 200.49001
10.998494 -4.1099806 -0.82103372 200.49001
4.2616272 -1.5925094 -2.0255485 200.49001
4.4825778 -1.6750755 -1.9988034 200.49001
4.7223377 -1.7646703 -1.9685556 200.49001
24.474968 -9.1459465 0 200.49001
5.006813 -1.8709747 -1.9454106 200.49001
24.38409 -9.1119871 0.60436267 200.49001
5.342392 -1.9963758 -1.9271042 200.49001
24.454012 -9.1381159 1.2174113 200.49001
5.7104268 -2.1339052 -1.9022281 200.49001
24.357412 -9.1020184 1.8182722 200.49001
6.1428413 -2.2954924 -1.880398 200.49001
24.391527 -9.1147661 2.4293098 200.49001
6.5844221 -2.4605048 -1.8401251 200.49001
24.389324 -9.1139431 3.0447743 200.49001
7.4669762 -2.7903025 -1.8887415 200.49001
24.3685 -9.1061621 3.6560774 200.49001
8.2463713 -3.0815513 -1.8712052 200.49001
24.361937 -9.1037092 4.2728481 200.49001
7.6828022 -2.8709538 -1.5452794 200.49001
24.351887 -9.0999537 4.8980136 200.49001
9.92626 -3.7409253 -1.7427956 200.64999
10.335803 -3.8952706 -1.5523368 200.64999
10.786832 -4.0652504 -1.348045 200.64999
10.854377 -4.0907059 -1.082191 200.64999
10.947768 -4.1259027 -0.81810391 200.64999
4.2537441 -1.6031152 -2.0239215 200.64999
4.4847903 -1.69019 -2.0018868 200.64999
4.717391 -1.7778506 -1.9685556 200.64999
24.441845 -9.2114372 0 200.64999
5.0103617 -1.888263 -1.9488307 200.64999
24.401583 -9.1962633 0.60543036 200.64999
5.3527536 -2.0173006 -1.9328663 200.64999
24.458309 -9.2176418 1.218902 200.64999
5.7026591 -2.1491699 -1.9016324 200.64999
24.352436 -9.1777411 1.8198069 200.64999
6.1400056 -2.3139935 -1.8815006 200.64999
24.408836 -9.1989965 2.433583 200.64999
6.5956302 -2.4857056 -1.84519 200.64999
24.39352 -9.193224 3.0484912 200.64999
7.4682603 -2.814575 -1.891047 200.64999
24.380043 -9.1881447 3.6616442 200.64999
8.2597008 -3.1128464 -1.8761951 200.64999
24.369661 -9.1842327 4.2786846 200.64999
7.5809588 -2.8570478 -1.5263939 200.64999
24.352129 -9.1776247 4.9031978 200.64999
9.9119558 -3.7731192 -1.7424713 200.84
10.337637 -3.9351606 -1.5545635 200.84
10.777005 -4.1024117 -1.3485096 200.84
11.101302 -4.2258596 -1.1082008 200.84
10.756888 -4.0947542 -0.80485022 200.84
4.2501121 -1.6178623 -2.024735 200.84
11.960809 -4.5530429 -0.59682685 200.84
4.4757113 -1.7037396 -2.000345 200.84
12.678801 -4.8263559 -0.31497049 200.84
4.7097287 -1.7928215 -1.967828 200.84
24.469109 -9.3144951 0 200.84
4.9988031 -1.9028617 -1.9467787 200.84
24.393377 -9.2856665 0.60598743 200.84
5.347805 -2.0357139 -1.9335066 200.84
24.470552 -9.3150444 1.2210448 200.84
5.6901479 -2.1660314 -1.8998451 200.84
24.370346 -9.2769003 1.8234342 200.84
6.1179242 -2.3288701 -1.8770903 200.84
24.400532 -9.2883902 2.4358122 200.84
6.7139263 -2.5557463 -1.8806453 200.84
24.403744 -9.2896128 3.0536017 200.84
7.4461541 -2.8344789 -1.8878192 200.84
24.379055 -9.2802153 3.6660979 200.84
8.216423 -3.127692 -1.8687103 200.84
24.372271 -9.2776327 4.2845211 200.84
24.35095 -9.2695169 4.9091225 200.84
9.9099293 -3.8060498 -1.7440925 201.00999
10.333311 -3.9686561 -1.5556769 201.00999
10.794456 -4.1457653 -1.3522264 201.00999
10.945575 -4.2038045 -1.0938954 201.00999
10.70558 -4.1116309 -0.80192041 201.00999
4.2384706 -1.6278453 -2.021481 201.00999
11.967762 -4.5963902 -0.59785169 201.00999
4.4671907 -1.7156885 -1.9988034 201.00999
23.117008 -8.878417 -0.57493138 201.00999
4.7061276 -1.8074557 -1.9685556 201.00999
24.53845 -9.4243431 0 201.00999
4.9913812 -1.9170113 -1.9460946 201.00999
24.408649 -9.3744907 0.60705513 201.00999
5.3328977 -2.0481756 -1.9303055 201.00999
24.470781 -9.3983536 1.2224423 201.00999
5.6872606 -2.1842737 -1.9010366 201.00999
24.36879 -9.3591824 1.8253874 201.00999
6.118166 -2.3497691 -1.8792955 201.00999
24.402607 -9.3721704 2.4387848 201.00999
6.7478557 -2.5916104 -1.8922949 201.00999
24.407598 -9.3740873 3.0575509 201.00999
7.4159107 -2.8481865 -1.8822858 201.00999
24.375448 -9.3617392 3.6697164 201.00999
24.377798 -9.3626423 4.2903571 201.00999
7.8160539 -3.0018673 -1.5774958 201.00999
24.356365 -9.3544102 4.9157882 201.00999
9.9059534 -3.8382885 -1.7453895 201.17999
10.325184 -4.0007291 -1.5562336 201.17999
10.785812 -4.1792102 -1.3526911 201.17999
10.782649 -4.1779847 -1.0788469 201.17999
10.713797 -4.1513062 -0.80345505 201.17999
4.2455478 -1.6450348 -2.0271754 201.17999
12.000644 -4.6499243 -0.60018086 201.17999
4.4620805 -1.7289354 -1.9988034 201.17999
23.122259 -8.9592485 -0.57572055 201.17999
4.7059555 -1.8234303 -1.9707379 201.17999
23.822231 -9.2304697 0 201.17999
4.9891758 -1.9331706 -1.9474627 201.17999
24.414286 -9.4598742 0.60789073 201.17999
5.3356309 -2.0674124 -1.9335066 201.17999
24.489361 -9.4889641 1.2247715 201.17999
5.6807547 -2.2011385 -1.9010366 201.17999
24.374399 -9.4444199 1.8278986 201.17999
6.1183381 -2.3706901 -1.8815006 201.17999
24.411829 -9.4589224 2.4425006 201.17999
6.7347245 -2.6095233 -1.8907753 201.17999
24.401905 -9.4550772 3.0603385 201.17999
7.4092417 -2.8708806 -1.8827469 201.17999
24.390039 -9.4504795 3.6761184 201.17999
7.6559467 -2.9664719 -1.7452108 201.17999
24.384876 -9.4484787 4.2965178 201.17999
24.363323 -9.4401283 4.9228239 201.17999
9.9239311 -3.8791592 -1.7505773 201.35001
10.322492 -4.0349522 -1.5576253 201.35001
10.812218 -4.2263808 -1.3575693 201.35001
10.670053 -4.1708102 -1.0688146 201.35001
4.2576652 -1.6642761 -2.0353103 201.35001
11.966326 -4.6775098 -0.59915602 201.35001
4.4431806 -1.736792 -1.9926367 201.35001
23.116058 -9.0358219 -0.57623118 201.35001
4.7005248 -1.8373851 -1.9707379 201.35001
24.552877 -9.5974588 0 201.35001
4.9764166 -1.9452283 -1.9447266 201.35001
24.414043 -9.54319 0.60858703 201.35001
5.3312383 -2.0839243 -1.9341469 201.35001
24.483427 -9.5703115 1.2258894 201.35001
5.6813116 -2.2207642 -1.9034196 201.35001
24.381577 -9.5304985 1.8305494 201.35001
6.1112771 -2.3888333 -1.8815006 201.35001
24.415186 -9.5436373 2.4456589 201.35001
6.7197442 -2.6266766 -1.8887494 201.35001
24.405195 -9.539732 3.0642877 201.35001
7.3825655 -2.8857665 -1.8781357 201.35001
24.385872 -9.5321779 3.6797369 201.35001
7.6471114 -2.9891746 -1.7452108 201.35001
24.38063 -9.5301294 4.3007331 201.35001
7.6681347 -2.9973924 -1.5512042 201.35001
24.364496 -9.5238218 4.9287486 201.35001
9.9406013 -3.9177113 -1.755441 201.50999
10.305655 -4.0615835 -1.5567904 201.50999
10.787436 -4.2514591 -1.3559432 201.50999
10.945526 -4.3137646 -1.0976111 201.50999
10.693421 -4.214407 -0.80373406 201.50999
4.2377024 -1.6701299 -2.0279889 201.50999
11.956935 -4.7123728 -0.59934235 201.50999
4.4451809 -1.7518996 -1.99572 201.50999
11.972285 -4.7184224 -0.29876935 201.50999
4.6919088 -1.849138 -1.969283 201.50999
24.553892 -9.6769857 0 201.50999
4.9657197 -1.9570502 -1.9426744 201.50999
24.424503 -9.6259928 0.60951549 201.50999
5.3289237 -2.1001933 -1.9354273 201.50999
24.49192 -9.6525621 1.2276596 201.50999
5.6679826 -2.2338207 -1.9010366 201.50999
24.386421 -9.6109838 1.8329211 201.50999
6.1045823 -2.4058897 -1.8815006 201.50999
24.427347 -9.6271133 2.4495604 201.50999
6.6997824 -2.6404653 -1.8852038 201.50999
24.420967 -9.6245985 3.0696306 201.50999
7.3762889 -2.9070847 -1.8785969 201.50999
24.394167 -9.6140366 3.6850255 201.50999
7.6587548 -3.0184078 -1.7497848 201.50999
24.390644 -9.612648 4.3072181 201.50999
7.6798482 -3.0267212 -1.5552776 201.50999
24.370718 -9.6047955 4.9354143 201.50999
9.9252653 -3.9457302 -1.7547925 201.67999
10.310123 -4.0987282 -1.5592954 201.67999
10.745239 -4.2717061 -1.3522264 201.67999
11.097372 -4.411694 -1.1141459 201.67999
10.667892 -4.2409573 -0.8027575 201.67999
4.2327285 -1.682696 -2.0279889 201.67999
11.965178 -4.7566853 -0.60046035 201.67999
4.4416785 -1.7657628 -1.9964908 201.67999
23.123089 -9.1924467 -0.57771665 201.67999
4.674283 -1.8582335 -1.9641907 201.67999
24.558525 -9.7630949 0 201.67999
4.9651303 -1.973858 -1.9447266 201.67999
24.427422 -9.7109756 0.61030465 201.67999
5.3244295 -2.1166952 -1.9360676 201.67999
24.498447 -9.739212 1.2294298 201.67999
5.6453624 -2.2442803 -1.8956748 201.67999
24.391171 -9.6965647 1.8354323 201.67999
6.0956306 -2.4232817 -1.8809493 201.67999
24.441236 -9.7164679 2.4538333 201.67999
6.5858402 -2.6181617 -1.8553201 201.67999
24.414455 -9.705821 3.0724182 201.67999
7.3857155 -2.9361472 -1.883208 201.67999
24.394981 -9.6980791 3.6894789 201.67999
7.6534009 -3.0425639 -1.7506164 201.67999
24.393192 -9.6973686 4.3127298 201.67999
7.608737 -3.0248079 -1.5426873 201.67999
24.374989 -9.6901312 4.9420795 201.67999
9.9153461 -3.9758961 -1.7551167 201.85001
10.312623 -4.1351976 -1.5615222 201.85001
10.736205 -4.3050475 -1.3526911 201.85001
11.106413 -4.453495 -1.1163753 201.85001
4.2345004 -1.6979674 -2.0312428 201.85001
12.032601 -4.824882 -0.60455972 201.85001
2.5025518 -1.0034834 -1.1262058 201.85001
11.842005 -4.7484555 -0.29621616 201.85001
4.6514573 -1.8651605 -1.9569159 201.85001
24.553581 -9.8455954 0 201.85001
4.9662294 -1.991379 -1.9474627 201.85001
24.43005 -9.7960615 0.61109382 201.85001
5.3146081 -2.1310735 -1.934787 201.85001
24.508383 -9.8274717 1.2313863 201.85001
5.6652598 -2.2716789 -1.9046111 201.85001
24.391922 -9.7807722 1.8376645 201.85001
6.075923 -2.4363484 -1.8770903 201.85001
24.44372 -9.8015432 2.4569917 201.85001
6.5098023 -2.6103272 -1.836073 201.85001
24.426111 -9.7944822 3.077529 201.85001
7.4058719 -2.9696369 -1.8905859 201.85001
24.399187 -9.7836857 3.6944892 201.85001
7.6316295 -3.0601621 -1.7477057 201.85001
24.391788 -9.7807188 4.3175936 201.85001
7.7055335 -3.0897965 -1.5641649 201.85001
24.37167 -9.7726517 4.9472642 201.85001
9.9057655 -4.0102358 -1.7557652 202.03999
10.297017 -4.1686296 -1.5612439 202.03999
10.731077 -4.3443537 -1.3538525 202.03999
11.121117 -4.5022569 -1.1193478 202.03999
10.851859 -4.3932509 -0.81866199 202.03999
4.2271533 -1.7113146 -2.0304294 202.03999
2.4821041 -1.0048515 -1.1184974 202.03999
11.963341 -4.8432212 -0.29965135 202.03999
4.6590619 -1.8861678 -1.9627358 202.03999
24.561583 -9.9434748 0 202.03999
4.9648247 -2.0099523 -1.9495149 202.03999
24.432644 -9.8912764 0.61197579 202.03999
5.3057561 -2.1479745 -1.9341469 202.03999
24.512695 -9.9236841 1.2332497 202.03999
5.6453075 -2.2854381 -1.9004409 202.03999
24.390791 -9.8743324 1.8400363 202.03999
6.0535541 -2.450712 -1.8726802 202.03999
24.444307 -9.895998 2.4603357 202.03999
6.5405655 -2.6478729 -1.8472161 202.03999
24.419275 -9.8858643 3.0807812 202.03999
7.3923759 -2.9927187 -1.8896637 202.03999
24.399654 -9.8779202 3.6994994 202.03999
7.5525331 -3.0575566 -1.7319044 202.03999
24.395807 -9.8763628 4.3240786 202.03999
24.377386 -9.8689051 4.9550405 202.03999
9.8919964 -4.0388632 -1.755441 202.21001
10.299273 -4.205152 -1.5634706 202.21001
10.721818 -4.377676 -1.3543172 202.21001
11.111397 -4.5367393 -1.1197194 202.21001
10.859094 -4.4337254 -0.82019663 202.21001
2.467941 -1.0076506 -1.1868576 202.21001
11.987252 -4.8943477 -0.60381436 202.21001
2.4825289 -1.0136068 -1.1200391 202.21001
11.928555 -4.8703823 -0.29914072 202.21001
4.6258483 -1.8887156 -1.9510961 202.21001
24.559746 -10.027647 0 202.21001
4.9640589 -2.0268056 -1.9515669 202.21001
24.434658 -9.9765739 0.61276495 202.21001
5.3098845 -2.1680048 -1.9379883 202.21001
24.516438 -10.009964 1.2349267 202.21001
5.6508746 -2.3072298 -1.9046111 202.21001
24.40387 -9.9640036 1.843245 202.21001
6.0800738 -2.48247 -1.8831544 202.21001
24.453554 -9.9842892 2.4642372 202.21001
6.5846267 -2.688477 -1.8619046 202.21001
24.426619 -9.9732924 3.085427 202.21001
7.3384209 -2.9962482 -1.8781357 202.21001
24.403242 -9.963748 3.7045095 202.21001
7.6013846 -3.1036153 -1.7452108 202.21001
24.397457 -9.9613857 4.3295903 202.21001
24.37711 -9.9530783 4.9609652 202.21001
9.9164677 -4.0832238 -1.7619258 202.38
10.294076 -4.2387085 -1.564584 202.38
10.719803 -4.4140067 -1.355711 202.38
11.127349 -4.5818191 -1.1226919 202.38
2.4869037 -1.0240123 -1.1974326 202.38
11.930188 -4.9123979 -0.60167152 202.38
4.4214811 -1.8205976 -1.9972618 202.38
23.127386 -9.5229778 -0.58068764 202.38
4.6753497 -1.9251312 -1.9743754 202.38
24.57057 -10.117226 0 202.38
4.9528098 -2.0393786 -1.9495149 202.38
24.449322 -10.0673 0.61387908 202.38
5.3051805 -2.1844714 -1.9386284 202.38
24.530966 -10.100918 1.2371626 202.38
5.6493001 -2.3261669 -1.9063984 202.38
24.407406 -10.050041 1.8457563 202.38
6.0780144 -2.5026951 -1.8848082 202.38
24.460649 -10.071964 2.467953 202.38
6.6231365 -2.7271557 -1.8750738 202.38
24.42631 -10.057824 3.089144 202.38
7.3600903 -3.0306051 -1.8859748 202.38
24.4102 -10.051191 3.7100766 202.38
7.4817967 -3.0807192 -1.7198455 202.38
24.406116 -10.04951 4.3363996 202.38
24.382002 -10.03958 4.9680009 202.38
9.9054127 -4.1151142 -1.7622499 202.56
10.291682 -4.2755866 -1.566254 202.56
10.713221 -4.4507108 -1.3566401 202.56
11.125772 -4.6221018 -1.1239924 202.56
11.56879 -4.8061495 -0.87600178 202.56
2.4870489 -1.033222 -1.1990596 202.56
11.999564 -4.9851108 -0.60595721 202.56
4.4004011 -1.8281069 -1.9903241 202.56
23.117666 -9.6040258 -0.58119828 202.56
4.6744399 -1.9419539 -1.9765579 202.56
24.568216 -10.206643 0 202.56
4.944643 -2.0542073 -1.9488307 202.56
24.441578 -10.154033 0.61448258 202.56
5.3017912 -2.2025812 -1.939909 202.56
24.530476 -10.190965 1.2387465 202.56
5.6331491 -2.3402407 -1.9034196 202.56
24.414404 -10.142743 1.8486861 202.56
6.08255 -2.5269403 -1.8886671 202.56
24.467505 -10.164804 2.4718544 202.56
6.6484842 -2.7620528 -1.8846973 202.56
24.429445 -10.148993 3.0935576 202.56
7.3613162 -3.0581925 -1.8887415 202.56
24.411425 -10.141505 3.7150867 202.56
7.567831 -3.1439872 -1.7418841 202.56
24.401762 -10.137491 4.3412633 202.56
7.5759039 -3.1473408 -1.5456496 202.56
24.386642 -10.13121 4.9754071 202.56
10.296897 -4.3093967 -1.5687592 202.71001
10.725354 -4.4887123 -1.35966 202.71001
11.120982 -4.6542883 -1.1247356 202.71001
11.572732 -4.8433523 -0.87725741 202.71001
4.2051673 -1.7599221 -2.0296159 202.71001
4.416029 -1.8481706 -1.9995743 202.71001
4.6744957 -1.9563426 -1.9787402 202.71001
24.57093 -10.283282 0 202.71001
4.9531178 -2.0729499 -1.9543031 202.71001
24.453644 -10.234196 0.61545742 202.71001
5.2960067 -2.2164538 -1.939909 202.71001
24.544256 -10.272119 1.2407962 202.71001
5.6375699 -2.3594029 -1.9069941 202.71001
24.420895 -10.22049 1.8511972 202.71001
6.0794606 -2.5443401 -1.8897697 202.71001
24.477549 -10.244201 2.47557 202.71001
6.6269522 -2.7734733 -1.8806453 202.71001
24.433943 -10.225951 3.0975068 202.71001
6.8793426 -2.8791022 -1.7670062 202.71001
24.419502 -10.219908 3.7203753 202.71001
7.5685973 -3.1675651 -1.7439632 202.71001
24.407907 -10.215055 4.3470993 202.71001
7.6746078 -3.2119319 -1.5674976 202.71001
24.396296 -10.210195 4.9828134 202.71001
9.9342737 -4.1943583 -1.7716529 202.89
10.294254 -4.3463464 -1.5704293 202.89
10.720349 -4.5262485 -1.3608216 202.89
11.095298 -4.6845555 -1.1236209 202.89
11.518861 -4.8633885 -0.87432766 202.89
4.1945682 -1.7709923 -2.0271754 202.89
11.827094 -4.9935279 -0.59869021 202.89
4.4051003 -1.8598814 -1.9972618 202.89
12.846179 -5.4237967 -0.32374415 202.89
4.6683269 -1.9710183 -1.9787402 202.89
24.579039 -10.377538 0 202.89
4.9517751 -2.0906932 -1.9563552 202.89
24.458212 -10.326523 0.61638588 202.89
5.2890172 -2.2330806 -1.939909 202.89
24.563398 -10.370934 1.2434049 202.89
5.6371655 -2.3800726 -1.9093771 202.89
24.423588 -10.311905 1.8538481 202.89
6.0944619 -2.573148 -1.8969363 202.89
24.489275 -10.339638 2.4800289 202.89
6.6182065 -2.7942786 -1.8806453 202.89
24.451109 -10.323524 3.1037788 202.89
