# .PCD v0.7 - Point Cloud Data file format
VERSION 0.7
FIELDS x y z intensity
SIZE 4 4 4 4
TYPE F F F F
COUNT 1 1 1 1
WIDTH 1158
HEIGHT 1
VIEWPOINT 0 0 0 1 0 0 0
POINTS 1158
DATA ascii
-25.163244 -25.437021 5.87849 314.69
-8.3652077 -8.4562206 -2.241081 314.69
-25.16888 -25.442719 6.7428689 314.69
-9.8967171 -9.9417295 -2.3047051 314.87
-11.453418 -11.505509 -2.2816038 314.87
-13.612293 -13.674205 -2.2563434 314.87
-16.888306 -16.965117 -2.2333078 314.87
-25.044786 -25.158695 -2.4823539 314.87
-3.3101873 -3.3252425 -2.0889995 314.87
-25.063185 -25.177177 -1.656693 314.87
-3.5309894 -3.547049 -2.090534 314.87
-25.065325 -25.179327 -0.82486522 314.87
-3.7748098 -3.7919784 -2.0893168 314.87
-25.094656 -25.208792 0 314.87
-4.0440173 -4.0624104 -2.0863228 314.87
-25.090717 -25.204834 0.82570082 314.87
-4.3698406 -4.3897157 -2.0929248 314.87
-25.092783 -25.206911 1.6586494 314.87
-4.7237492 -4.7452335 -2.0892935 314.87
-25.117981 -25.232222 2.4896085 314.87
-5.1920748 -5.2156892 -2.1102796 314.87
-25.170193 -25.284672 3.3285038 314.87
-5.7493935 -5.7755427 -2.1333902 314.87
-25.143431 -25.257788 4.1677194 314.87
-6.4557819 -6.4851441 -2.1681793 314.87
-25.153645 -25.268047 5.0107884 314.87
-7.2969451 -7.330133 -2.1984582 314.87
-25.166454 -25.280916 5.8606567 314.87
-8.4000521 -8.4382572 -2.2433028 314.87
-25.159945 -25.274376 6.7191696 314.87
-9.9345503 -9.9206886 -2.3066506 315.04001
-11.449666 -11.43369 -2.2740884 315.04001
-13.648588 -13.629545 -2.2556465 315.04001
-15.819757 -15.797685 -2.0857954 315.04001
-25.045914 -25.010967 -2.4750991 315.04001
-3.3252103 -3.3205707 -2.0922532 315.04001
-25.052958 -25.018 -1.651103 315.04001
-3.5349689 -3.5300367 -2.0866799 315.04001
-25.066353 -25.031378 -0.82245129 315.04001
-3.7847261 -3.7794454 -2.0885894 315.04001
-25.091505 -25.056496 0 315.04001
-4.058713 -4.0530496 -2.0876911 315.04001
-25.094648 -25.059635 0.8233797 315.04001
-4.3788238 -4.372714 -2.0910041 315.04001
-25.095367 -25.06035 1.653898 315.04001
-4.7337551 -4.72715 -2.0875063 315.04001
-25.113678 -25.078636 2.4817958 315.04001
-5.2088876 -5.2016196 -2.1108308 315.04001
-25.181696 -25.146559 3.3201435 315.04001
-5.7678738 -5.7598257 -2.1338968 315.04001
-25.132519 -25.097452 4.1535492 315.04001
-6.4763722 -6.4673362 -2.1686404 315.04001
-25.147223 -25.112135 4.9946442 315.04001
-7.3186617 -7.3084502 -2.1984582 315.04001
-25.165945 -25.130831 5.8431478 315.04001
-8.4194889 -8.4077415 -2.2418215 315.04001
-25.166677 -25.131563 6.7010245 315.04001
-9.9653425 -9.8925591 -2.3069749 315.20999
-11.4484 -11.364785 -2.2671299 315.20999
-13.681919 -13.581991 -2.2544851 315.20999
-25.052048 -24.869076 -2.4684026 315.20999
-3.3298612 -3.305541 -2.0889995 315.20999
-25.043423 -24.860516 -1.6456062 315.20999
-3.5506661 -3.5247333 -2.0897632 315.20999
-25.059629 -24.876602 -0.81980526 315.20999
-3.7919567 -3.7642617 -2.0864069 315.20999
-25.090511 -24.907259 0 315.20999
-4.0720544 -4.0423136 -2.0883751 315.20999
-25.092266 -24.909 0.82087296 315.20999
-4.3944678 -4.3623724 -2.0922847 315.20999
-25.091631 -24.908369 1.6487738 315.20999
-4.7545347 -4.7198091 -2.0904849 315.20999
-25.108685 -24.925299 2.473983 315.20999
-5.2229338 -5.1847873 -2.1102796 315.20999
-25.178467 -24.994572 3.3099253 315.20999
-5.7876844 -5.7454133 -2.1349096 315.20999
-25.136385 -24.952799 4.1419339 315.20999
-6.4996762 -6.4522052 -2.1700237 315.20999
-25.141502 -24.957878 4.9787784 315.20999
-7.3444796 -7.2908378 -2.1997056 315.20999
-25.159163 -24.975409 5.8243418 315.20999
-8.4485826 -8.3868771 -2.2429326 315.20999
-25.174181 -24.990318 6.68325 315.20999
-9.9974594 -9.8657198 -2.3076234 315.38
-11.448237 -11.29738 -2.2604494 315.38
-13.717916 -13.53715 -2.2537882 315.38
-17.384493 -17.155411 -2.2786391 315.38
-25.047619 -24.71756 -2.4607294 315.38
-3.3396542 -3.2956467 -2.0889995 315.38
-25.045975 -24.715937 -1.6409478 315.38
-3.5584812 -3.5115902 -2.0882215 315.38
-25.056477 -24.726301 -0.81729847 315.38
-3.8070869 -3.7569199 -2.0885894 315.38
-25.0917 -24.761059 0 315.38
-4.0773416 -4.0236135 -2.0849547 315.38
-25.08494 -24.754389 0.81822693 315.38
-4.407392 -4.3493147 -2.0922847 315.38
-25.090057 -24.759438 1.643836 315.38
-4.7685175 -4.7056813 -2.0904849 315.38
-25.104424 -24.773615 2.4663098 315.38
-5.2451363 -5.1760197 -2.1130359 315.38
-25.16889 -24.837231 3.2989643 315.38
-5.8047056 -5.7282152 -2.1349096 315.38
-25.124062 -24.792994 4.1277637 315.38
-6.5215621 -6.4356256 -2.1709459 315.38
-25.137909 -24.80666 4.9634695 315.38
-7.3688641 -7.2717624 -2.2005374 315.38
-25.160109 -24.828568 5.8074813 315.38
-8.481823 -8.3700562 -2.2451544 315.38
-25.16708 -24.835445 6.6617723 315.38
-10.028404 -9.8342638 -2.3076234 315.56
-11.449735 -11.228078 -2.2537692 315.56
-13.756122 -13.489815 -2.2530913 315.56
-15.282862 -14.987 -1.9969908 315.56
-25.053925 -24.568903 -2.4537537 315.56
-3.3552094 -3.2902555 -2.0922532 315.56
-25.045046 -24.560196 -1.6358236 315.56
-3.5668604 -3.4978092 -2.0866799 315.56
-25.058371 -24.573263 -0.81483817 315.56
-3.8162105 -3.7423322 -2.0871344 315.56
-25.085115 -24.599491 0 315.56
-4.0913038 -4.0121002 -2.0856388 315.56
-25.086924 -24.601263 0.81576657 315.56
-4.4183283 -4.3327937 -2.0910041 315.56
-25.086412 -24.600761 1.6385255 315.56
-4.7832775 -4.6906776 -2.0904849 315.56
-25.103781 -24.617794 2.4586368 315.56
-5.2613716 -5.1595159 -2.1130359 315.56
-25.167173 -24.679958 3.2885604 315.56
-5.8281984 -5.7153697 -2.1369357 315.56
-25.130911 -24.6444 4.1161485 315.56
-6.5486956 -6.4219189 -2.1732516 315.56
-25.137943 -24.651297 4.9481606 315.56
-7.390276 -7.2472072 -2.2001214 315.56
-25.15485 -24.667875 5.7883511 315.56
-8.5066738 -8.3419924 -2.2447841 315.56
-25.163588 -24.676443 6.6402946 315.56
-10.071068 -9.8245125 -2.3115144 315.70999
-11.447901 -11.167639 -2.2476456 315.70999
-13.79139 -13.453755 -2.2530913 315.70999
-15.284984 -14.910784 -1.9921604 315.70999
-25.018188 -24.405704 -2.4439878 315.70999
-3.3546567 -3.2725296 -2.0865591 315.70999
-25.030603 -24.417816 -1.6306994 315.70999
-3.5760055 -3.4884593 -2.0866799 315.70999
-25.04533 -24.432182 -0.81233138 315.70999
-3.8246613 -3.7310276 -2.0864069 315.70999
-25.067827 -24.454128 0 315.70999
-4.1044841 -4.0040002 -2.0870068 315.70999
-25.071093 -24.457314 0.81316698 315.70999
-4.4296565 -4.3212113 -2.0910041 315.70999
-25.076366 -24.462458 1.6336808 315.70999
-4.7928076 -4.6754723 -2.0892935 315.70999
-25.088167 -24.47397 2.450824 315.70999
-5.2734847 -5.1443815 -2.1124847 315.70999
-25.156151 -24.540289 3.2787137 315.70999
-5.8417563 -5.698741 -2.1364293 315.70999
-25.112871 -24.49807 4.102675 315.70999
-6.5654855 -6.4047523 -2.1732516 315.70999
-25.128674 -24.513485 4.9336863 315.70999
-7.4162254 -7.2346649 -2.2022007 315.70999
-25.147297 -24.531652 5.7718148 315.70999
-8.534111 -8.3251829 -2.2462652 315.70999
-25.146505 -24.53088 6.6188173 315.70999
-10.110385 -9.8010674 -2.3134599 315.89001
-11.450222 -11.099913 -2.2412436 315.89001
-13.822178 -13.399302 -2.2512329 315.89001
-15.450425 -14.977734 -2.0075805 315.89001
-25.030275 -24.264498 -2.4377098 315.89001
-3.3675449 -3.2645178 -2.088186 315.89001
-25.034035 -24.268141 -1.625948 315.89001
-3.5882721 -3.4784923 -2.0874507 315.89001
-25.040133 -24.274052 -0.80968535 315.89001
-3.8363638 -3.7189937 -2.0864069 315.89001
-25.066984 -24.300083 0 315.89001
-4.117043 -3.9910855 -2.0870068 315.89001
-25.081766 -24.314411 0.81103158 315.89001
-4.4472914 -4.3112307 -2.0929248 315.89001
-25.079937 -24.312639 1.6289293 315.89001
-4.8088436 -4.6617212 -2.0898893 315.89001
-25.090441 -24.322821 2.4435692 315.89001
-5.2896204 -5.127789 -2.1124847 315.89001
-25.154482 -24.384905 3.2684956 315.89001
-5.8596306 -5.6803603 -2.1364293 315.89001
-25.115543 -24.347157 4.0905952 315.89001
-6.5813823 -6.3800311 -2.1718683 315.89001
-25.135881 -24.366873 4.9200473 315.89001
-7.4403219 -7.2126923 -2.2026165 315.89001
-25.146307 -24.376978 5.7539811 315.89001
-8.5672789 -8.305171 -2.2481167 315.89001
-25.147243 -24.377886 6.5988207 315.89001
-10.132598 -9.7610407 -2.3115144 316.07001
-11.447951 -11.028161 -2.2340066 316.07001
-13.862774 -13.354433 -2.2510006 316.07001
-17.47366 -16.832909 -2.2635906 316.07001
-25.030228 -24.112381 -2.4303155 316.07001
-3.3751523 -3.2513871 -2.0865591 316.07001
-25.033894 -24.115913 -1.6210101 316.07001
-3.5991824 -3.4672022 -2.0874507 316.07001
-25.050028 -24.131456 -0.80754995 316.07001
-3.8520536 -3.7108006 -2.0885894 316.07001
-25.068302 -24.149059 0 316.07001
-4.132268 -3.9807396 -2.0883751 316.07001
-25.074509 -24.155039 0.80833912 316.07001
-4.4553552 -4.2919793 -2.090364 316.07001
-25.079935 -24.160267 1.6239914 316.07001
-4.820715 -4.6439419 -2.0886977 316.07001
-25.10207 -24.181589 2.4372911 316.07001
-5.3126264 -5.117815 -2.1152411 316.07001
-25.160692 -24.238062 3.2593923 316.07001
-5.8774471 -5.6619239 -2.1364293 316.07001
-25.116085 -24.195091 4.0782833 316.07001
-6.605598 -6.3633738 -2.1732516 316.07001
-25.131006 -24.209465 4.904182 316.07001
-7.4671712 -7.1933537 -2.2038639 316.07001
-25.140327 -24.218445 5.7351751 316.07001
-8.5919123 -8.2768517 -2.2477465 316.07001
-25.147268 -24.22513 6.578824 316.07001
-10.174068 -9.7463598 -2.3147566 316.23001
-11.45868 -10.976968 -2.2301097 316.23001
-13.891406 -13.307424 -2.2496066 316.23001
-18.147566 -17.384659 -2.3445923 316.23001
-25.022547 -23.970621 -2.4230609 316.23001
-3.3894963 -3.247005 -2.0898128 316.23001
-25.024679 -23.972664 -1.6160723 316.23001
-3.6101832 -3.4584146 -2.0882215 316.23001
-25.045126 -23.992252 -0.80522889 316.23001
-3.8583651 -3.6961629 -2.0864069 316.23001
-25.066317 -24.012552 0 316.23001
-4.1392965 -3.9652843 -2.0863228 316.23001
-25.06534 -24.011616 0.80587876 316.23001
-4.4686913 -4.2808318 -2.0910041 316.23001
-25.078058 -24.0238 1.6195195 316.23001
-4.8309069 -4.62782 -2.0875063 316.23001
-25.093142 -24.038248 2.4298971 316.23001
-5.3185678 -5.0949798 -2.1119335 316.23001
-25.153503 -24.096073 3.2497315 316.23001
-5.8988237 -5.6508427 -2.1384552 316.23001
-25.108959 -24.053402 4.0662036 316.23001
-6.626153 -6.3475952 -2.1741738 316.23001
-25.122713 -24.066578 4.8894296 316.23001
-7.4928803 -7.1778865 -2.2055273 316.23001
-25.129478 -24.073057 5.7173419 316.23001
-8.6206694 -8.2582645 -2.2492278 316.23001
-25.142437 -24.085472 6.5599389 316.23001
-10.209191 -9.7152882 -2.3154051 316.42001
-11.469193 -10.914333 -2.2250996 316.42001
-13.93402 -13.259916 -2.2493744 316.42001
-15.45848 -14.710626 -1.99086 316.42001
-25.028187 -23.817368 -2.4159458 316.42001
-3.397598 -3.233228 -2.088186 316.42001
-25.036016 -23.824818 -1.6116934 316.42001
-3.6216321 -3.4464238 -2.0882215 316.42001
-25.040541 -23.829123 -0.80253643 316.42001
-3.8733001 -3.6859164 -2.087862 316.42001
-25.070469 -23.857603 0 316.42001
-4.1551461 -3.9541273 -2.0876911 316.42001
-25.06806 -23.85531 0.80341846 316.42001
-4.4814901 -4.2646832 -2.090364 316.42001
-25.083776 -23.870266 1.6147679 316.42001
-4.84761 -4.613091 -2.0881019 316.42001
-25.090336 -23.876509 2.4219449 316.42001
-5.3465757 -5.0879173 -2.1163437 316.42001
-25.158258 -23.941145 3.2400706 316.42001
-5.9133253 -5.6272492 -2.1369357 316.42001
-25.112318 -23.897429 4.0538917 316.42001
-6.6513953 -6.3296123 -2.1755571 316.42001
-25.126343 -23.910774 4.8746772 316.42001
-7.5166421 -7.1529999 -2.2055273 316.42001
-25.137686 -23.921568 5.7011299 316.42001
-8.6508551 -8.2323418 -2.2499683 316.42001
-25.145285 -23.928801 6.5399423 316.42001
-10.240582 -9.6908112 -2.3163779 316.57999
-11.48668 -10.870011 -2.2225945 316.57999
-13.966665 -13.216857 -2.2486775 316.57999
-17.893272 -16.932661 -2.2983322 316.57999
-25.020695 -23.677444 -2.4088306 316.57999
-3.4052866 -3.2224717 -2.0873725 316.57999
-25.025543 -23.682032 -1.6067556 316.57999
-3.6299016 -3.4350283 -2.0874507 316.57999
-25.035824 -23.691761 -0.8002618 316.57999
-3.8781652 -3.6699636 -2.0849521 316.57999
-25.068718 -23.722891 0 316.57999
-4.1648068 -3.9412167 -2.0870068 316.57999
-25.073584 -23.727493 0.80146873 316.57999
-4.493382 -4.252152 -2.090364 316.57999
-25.071978 -23.725973 1.6097369 316.57999
-4.8646336 -4.6034727 -2.0898893 316.57999
-25.078661 -23.732298 2.4144111 316.57999
-5.3523846 -5.0650387 -2.1130359 316.57999
-25.145464 -23.795515 3.2298527 316.57999
-5.9360433 -5.6173635 -2.1394682 316.57999
-25.093826 -23.746651 4.0401859 316.57999
-6.6662178 -6.3083382 -2.1746349 316.57999
-25.119652 -23.771088 4.8604813 316.57999
-7.5394297 -7.1346707 -2.2063589 316.57999
-25.135584 -23.786165 5.6855664 316.57999
-8.6766653 -8.2108536 -2.2507088 316.57999
-25.142059 -23.792294 6.5217972 316.57999
-10.275041 -9.6657925 -2.3176749 316.75
-11.498686 -10.816883 -2.2186975 316.75
-14.001478 -13.171276 -2.2479806 316.75
-16.214506 -15.253083 -2.0768778 316.75
-25.018177 -23.534752 -2.401855 316.75
-3.4188251 -3.2161095 -2.0898128 316.75
-25.020029 -23.536493 -1.6019108 316.75
-3.642766 -3.4267721 -2.0889924 316.75
-25.039017 -23.554356 -0.7981264 316.75
-3.8917511 -3.6609938 -2.0864069 316.75
-25.057419 -23.571665 0 316.75
-4.1710067 -3.9236913 -2.0842707 316.75
-25.068144 -23.581755 0.7990548 316.75
-4.5087385 -4.2413979 -2.0916443 316.75
-25.072416 -23.585773 1.6052649 316.75
-4.8838329 -4.5942516 -2.0922723 316.75
-25.080666 -23.593533 2.4078538 316.75
-5.381392 -5.0623083 -2.1185486 316.75
-25.143435 -23.65258 3.2205634 316.75
-5.956912 -5.603703 -2.1409879 316.75
-25.099064 -23.610842 4.0297322 316.75
-6.6877403 -6.2911983 -2.1755571 316.75
-25.116499 -23.627243 4.8462858 316.75
-7.5591402 -7.110929 -2.2059431 316.75
-25.1313 -23.641167 5.6687059 316.75
-8.7038527 -8.187767 -2.2514496 316.75
-25.135237 -23.644871 6.501801 316.75
-10.303674 -9.6352634 -2.3176749 316.92001
-11.520603 -10.77325 -2.2167492 316.92001
-14.036144 -13.125604 -2.2472837 316.92001
-17.989073 -16.822104 -2.2977748 316.92001
-25.009205 -23.386831 -2.3943212 316.92001
-3.4190109 -3.197216 -2.0841186 316.92001
-25.010956 -23.388468 -1.5968798 316.92001
-3.6461778 -3.4096463 -2.0851381 316.92001
-25.035772 -23.411676 -0.79580528 316.92001
-3.9039571 -3.6507032 -2.0871344 316.92001
-25.051285 -23.42618 0 316.92001
-4.1853757 -3.9138658 -2.0856388 316.92001
-25.053299 -23.428064 0.79636234 316.92001
-4.5226874 -4.2292957 -2.0922847 316.92001
-25.063488 -23.437592 1.6002339 316.92001
-4.8974433 -4.5797405 -2.0922723 316.92001
-25.07041 -23.444065 2.4001808 316.92001
-5.3879633 -5.0384402 -2.1152411 316.92001
-25.14805 -23.516668 3.212203 316.92001
-5.970686 -5.5833611 -2.1399748 316.92001
-25.089209 -23.461645 4.0169559 316.92001
-6.7092204 -6.2739859 -2.1764793 316.92001
-25.108377 -23.47957 4.831255 316.92001
-7.5859213 -7.0938144 -2.2076063 316.92001
-25.129259 -23.499098 5.652494 316.92001
-8.730979 -8.1645908 -2.2521901 316.92001
-25.137812 -23.507095 6.4843965 316.92001
-10.346672 -9.6180868 -2.3209174 317.09
-11.543814 -10.730929 -2.2150791 317.09
-14.072117 -13.081196 -2.246819 317.09
-17.881388 -16.622227 -2.2777102 317.09
-25.002499 -23.241888 -2.3870666 317.09
-3.4324968 -3.1907895 -2.0865591 317.09
-25.011467 -23.250227 -1.592501 317.09
-3.65763 -3.4000692 -2.0859089 317.09
-25.028975 -23.2665 -0.79339135 317.09
-3.9134071 -3.6378353 -2.0864069 317.09
-25.048904 -23.285027 0 317.09
-4.19697 -3.9014304 -2.0856388 317.09
-25.064121 -23.299173 0.79450548 317.09
-4.5310526 -4.211988 -2.090364 317.09
-25.067072 -23.301914 1.5960413 317.09
-4.9138064 -4.5677891 -2.0934637 317.09
-25.069717 -23.304375 2.3934841 317.09
-5.4141541 -5.0329032 -2.1196513 317.09
-25.138954 -23.368736 3.2021708 317.09
-5.991477 -5.5695729 -2.1414943 317.09
-25.091784 -23.324886 4.0062699 317.09
-6.7335076 -6.2593517 -2.178324 317.09
-25.108303 -23.340242 4.8178945 317.09
-7.6126666 -7.0766029 -2.2092695 317.09
-25.125153 -23.355906 5.6359577 317.09
-8.7638025 -8.1466789 -2.2544119 317.09
-25.131153 -23.361485 6.4647703 317.09
-10.376837 -9.5855341 -2.3209174 317.26999
-11.573105 -10.690578 -2.2142441 317.26999
-14.113143 -13.036922 -2.246819 317.26999
-17.921818 -16.555159 -2.2762239 317.26999
-25.006512 -23.099598 -2.3805094 317.26999
-3.4411619 -3.1787505 -2.0857456 317.26999
-25.01688 -23.109177 -1.5882154 317.26999
-3.6696491 -3.3898139 -2.0866799 317.26999
-25.028509 -23.119919 -0.79107028 317.26999
-3.9248164 -3.6255231 -2.0864069 317.26999
-25.049946 -23.139721 0 317.26999
-4.2105865 -3.8895011 -2.0863228 317.26999
-25.056416 -23.145697 0.79195231 317.26999
-4.5456543 -4.199018 -2.0910041 317.26999
-25.066776 -23.155268 1.591383 317.26999
-4.9309373 -4.5549207 -2.0946553 317.26999
-25.069529 -23.157812 2.3865085 317.26999
-5.4228773 -5.009347 -2.116895 317.26999
-25.13472 -23.218029 3.1923242 317.26999
-6.0117869 -5.5533485 -2.1425073 317.26999
-25.091978 -23.178547 3.9946549 317.26999
-6.7545681 -6.2394876 -2.1787851 317.26999
-25.110218 -23.195398 4.8042555 317.26999
-7.634861 -7.0526519 -2.2092695 317.26999
-25.12302 -23.207224 5.6190972 317.26999
-8.7907963 -8.1204395 -2.2547822 317.26999
-25.135122 -23.218403 6.4469957 317.26999
-10.406686 -9.5560379 -2.3212416 317.44
-11.598938 -10.650835 -2.2131307 317.44
-14.131278 -12.97618 -2.243567 317.44
-18.271545 -16.778021 -2.3143096 317.44
-25.007339 -22.963228 -2.3740919 317.44
-3.45327 -3.1709979 -2.0873725 317.44
-25.010288 -22.965935 -1.5834638 317.44
-3.6783314 -3.3776629 -2.0859089 317.44
-25.021887 -22.976585 -0.78870279 317.44
-3.9369285 -3.6151221 -2.0871344 317.44
-25.046309 -22.99901 0 317.44
-4.2193394 -3.8744488 -2.0849547 317.44
-25.054287 -23.006338 0.78972405 317.44
-4.553906 -4.1816678 -2.0890834 317.44
-25.063263 -23.01458 1.5868179 317.44
-4.9402113 -4.536396 -2.0928679 317.44
-25.064651 -23.015856 2.3795328 317.44
-5.4377165 -4.9932351 -2.116895 317.44
-25.13456 -23.080048 3.1835923 317.44
-6.0282378 -5.5354867 -2.1425073 317.44
-25.086018 -23.035475 3.9828074 317.44
-6.7687511 -6.2154698 -2.1774015 317.44
-25.108908 -23.056494 4.790895 317.44
-7.6600757 -7.0339375 -2.2105172 317.44
-25.120539 -23.067173 5.603209 317.44
-8.8148518 -8.0943213 -2.2547822 317.44
-25.132967 -23.078587 6.4288511 317.44
-10.442281 -9.5317707 -2.3228626 317.60999
-11.623175 -10.609697 -2.2117388 317.60999
-14.171184 -12.935534 -2.2437992 317.60999
-15.663585 -14.297806 -1.9785982 317.60999
-25.011999 -22.831091 -2.3680928 317.60999
-3.4599643 -3.1582744 -2.0857456 317.60999
-25.006018 -22.82563 -1.5788987 317.60999
-3.6869738 -3.36549 -2.0851381 317.60999
-25.020542 -22.838888 -0.78652096 317.60999
-3.9490135 -3.604681 -2.087862 317.60999
-25.040579 -22.857178 0 317.60999
-4.233593 -3.8644466 -2.0863228 317.60999
-25.051554 -22.867195 0.78749585 317.60999
-4.5704918 -4.1719699 -2.0910041 317.60999
-25.05471 -22.870077 1.5819732 317.60999
-4.95929 -4.5268669 -2.0952508 317.60999
-25.060627 -22.875477 2.3726966 317.60999
-5.4553475 -4.979671 -2.1179974 317.60999
-25.129391 -22.938246 3.1743033 317.60999
-6.0432062 -5.5162716 -2.1420007 317.60999
-25.085299 -22.897997 3.9718893 317.60999
-6.7943497 -6.2019196 -2.1797073 317.60999
-25.106995 -22.917801 4.777534 317.60999
-7.6838021 -7.0138164 -2.2113488 317.60999
-25.113073 -22.923351 5.5863485 317.60999
-8.841732 -8.0707817 -2.2555227 317.60999
-25.122946 -22.932362 6.4088545 317.60999
-10.473636 -9.5002451 -2.3231869 317.79001
-11.654982 -10.571799 -2.2114606 317.79001
-14.219109 -12.897623 -2.2449608 317.79001
-24.999371 -22.675997 -2.3601406 317.79001
-3.4685159 -3.1461616 -2.0849321 317.79001
-25.008055 -22.683874 -1.5745199 317.79001
-3.7002625 -3.3563702 -2.0866799 317.79001
-25.024044 -22.698378 -0.78438556 317.79001
-3.9603183 -3.592257 -2.087862 317.79001
-25.042639 -22.715244 0 317.79001
-4.2429285 -3.8486021 -2.0849547 317.79001
-25.049221 -22.721214 0.78517473 317.79001
-4.5835757 -4.1575904 -2.0910041 317.79001
-25.055407 -22.726826 1.5775012 317.79001
-4.9749012 -4.512547 -2.0958467 317.79001
-25.061436 -22.732294 2.3660002 317.79001
-5.4738126 -4.9650912 -2.1191001 317.79001
-25.134956 -22.798981 3.1659429 317.79001
-6.0676718 -5.5037589 -2.1445332 317.79001
-25.086487 -22.755016 3.9607389 317.79001
-6.8166828 -6.1831589 -2.1806295 317.79001
-25.104053 -22.77095 4.7633386 317.79001
-7.7072477 -6.9909568 -2.2117646 317.79001
-25.117723 -22.78335 5.5714335 317.79001
-8.8772335 -8.0522079 -2.2581151 317.79001
-25.127899 -22.792582 6.3918204 317.79001
-10.504709 -9.4717703 -2.3238354 317.95999
-11.68924 -10.539824 -2.2120173 317.95999
-14.254363 -12.852717 -2.2444961 317.95999
-18.22193 -16.430147 -2.2890429 317.95999
-23.703342 -21.372568 -2.2317886 317.95999
-3.4819062 -3.1395268 -2.0873725 317.95999
-23.732462 -21.398825 -1.4902039 317.95999
-3.7088342 -3.3441408 -2.0859089 317.95999
-23.799372 -21.459154 -0.74399883 317.95999
-3.9709594 -3.5804908 -2.087862 317.95999
-23.828066 -21.485027 0 317.95999
-4.2543287 -3.8359962 -2.0849547 317.95999
-25.091282 -22.624031 0.78438556 317.95999
-4.5972986 -4.1452413 -2.0916443 317.95999
-25.101955 -22.633654 1.5761968 317.95999
-4.9868503 -4.4964881 -2.0952508 317.95999
-25.11692 -22.647146 2.3648839 317.95999
-5.4885201 -4.9488287 -2.1191001 317.95999
-25.190659 -22.713636 3.1644566 317.95999
-6.0825381 -5.484436 -2.1440268 317.95999
-25.156841 -22.683144 3.9612033 317.95999
-6.8349986 -6.1629062 -2.1806295 317.95999
-25.16415 -22.689734 4.7619467 317.95999
-7.7337675 -6.9732985 -2.2134278 317.95999
-25.198404 -22.720619 5.5743518 317.95999
-8.8996267 -8.0245171 -2.2577446 317.95999
-25.22023 -22.740299 6.3981156 317.95999
-10.533877 -9.4481897 -2.3248081 318.10999
-11.715318 -10.507864 -2.2117388 318.10999
-14.298314 -12.82464 -2.2461221 318.10999
-18.41757 -16.519339 -2.3081789 318.10999
-25.196917 -22.599964 -2.3668373 318.10999
-3.4901135 -3.1304004 -2.0873725 318.10999
-25.202766 -22.605211 -1.5788054 318.10999
-3.720324 -3.336884 -2.0874507 318.10999
-25.209963 -22.611666 -0.78624243 318.10999
-3.9761589 -3.5663507 -2.0856795 318.10999
-25.231646 -22.631113 0 318.10999
-4.2629576 -3.8235903 -2.0842707 318.10999
-25.239733 -22.638367 0.78717089 318.10999
-4.6067243 -4.1319265 -2.0910041 318.10999
-25.260769 -22.657236 1.5824391 318.10999
-4.9986048 -4.483417 -2.0952508 318.10999
-25.263752 -22.65991 2.3731153 318.10999
-5.511476 -4.9434285 -2.1229589 318.10999
-25.33157 -22.720739 3.1746747 318.10999
-6.0983157 -5.4697847 -2.1445332 318.10999
-25.30043 -22.692808 3.9744446 318.10999
-6.8554559 -6.1488895 -2.1820128 318.10999
-25.311928 -22.703121 4.7786474 318.10999
-7.7505407 -6.9517212 -2.213012 318.10999
-25.335665 -22.724411 5.5915365 318.10999
-8.9264565 -8.0064392 -2.2592258 318.10999
-25.361612 -22.747684 6.4188528 318.10999
-10.567927 -9.4189892 -2.3257809 318.29001
-11.734965 -10.459147 -2.2092338 318.29001
-14.342982 -12.783623 -2.246819 318.29001
-15.863386 -14.138728 -1.9824997 318.29001
-25.34971 -22.593706 -2.3745103 318.29001
-3.4972029 -3.1169891 -2.0857456 318.29001
-25.363144 -22.605679 -1.5843955 318.29001
-3.7321665 -3.3264077 -2.0882215 318.29001
-25.352522 -22.596212 -0.78847069 318.29001
-3.988734 -3.5550814 -2.0864069 318.29001
-25.378765 -22.6196 0 318.29001
-4.2749486 -3.810179 -2.0842707 318.29001
-25.382376 -22.62282 0.78939915 318.29001
-4.6196823 -4.1174335 -2.0910041 318.29001
-25.403414 -22.641569 1.586911 318.29001
-5.0169411 -4.4715023 -2.0970383 318.29001
-25.413754 -22.650787 2.3805094 318.29001
-5.5241084 -4.9235311 -2.1218565 318.29001
-25.483101 -22.712593 3.1847072 318.29001
-6.1198025 -5.4544616 -2.1460528 318.29001
-25.451675 -22.684586 3.9869888 318.29001
-6.8718338 -6.1247325 -2.1810906 318.29001
-25.460011 -22.692013 4.7931218 318.29001
-7.7781839 -6.9325447 -2.2146754 318.29001
-25.493855 -22.722179 5.6106668 318.29001
-8.9530325 -7.9796648 -2.2595961 318.29001
-25.513649 -22.73982 6.4392195 318.29001
-10.60026 -9.3915186 -2.3267536 318.45999
-11.761499 -10.420342 -2.2083988 318.45999
-14.382336 -12.742327 -2.2470515 318.45999
-14.119632 -12.509579 -1.7599306 318.45999
-25.498768 -22.59116 -2.3821836 318.45999
-3.5064359 -3.1065991 -2.0857456 318.45999
-25.503378 -22.595243 -1.5889606 318.45999
-3.7364943 -3.3104243 -2.0851381 318.45999
-25.506256 -22.597794 -0.79116315 318.45999
-3.9978702 -3.5419955 -2.0856795 318.45999
-25.535585 -22.623777 0 318.45999
-4.2834215 -3.7949858 -2.0829027 318.45999
-25.530203 -22.619009 0.79190588 318.45999
-4.6262059 -4.0986824 -2.0884433 318.45999
-25.551229 -22.637638 1.5919421 318.45999
-5.0287571 -4.4553308 -2.0964425 318.45999
-25.565969 -22.650698 2.3884616 318.45999
-5.5358143 -4.9045691 -2.1207538 318.45999
-25.636827 -22.713476 3.1954825 318.45999
-6.1388555 -5.4388456 -2.1470659 318.45999
-25.603621 -22.684055 4.0002298 318.45999
-6.9001722 -6.1133499 -2.1843185 318.45999
-25.604313 -22.684668 4.8075957 318.45999
-7.8001833 -6.9107332 -2.2150912 318.45999
-25.643883 -22.719727 5.6288242 318.45999
-8.9796114 -7.9556723 -2.2603369 318.45999
-25.66633 -22.739614 6.4606972 318.45999
-10.634155 -9.3620825 -2.3277264 318.64001
-11.788231 -10.378106 -2.2072854 318.64001
-14.408877 -12.685267 -2.2449608 318.64001
-19.493284 -17.16147 -2.4229932 318.64001
-25.657967 -22.588724 -2.390415 318.64001
-3.5134354 -3.0931532 -2.0841186 318.64001
-25.661209 -22.591579 -1.5943644 318.64001
-3.748261 -3.2998888 -2.0859089 318.64001
-25.665668 -22.595505 -0.79390204 318.64001
-4.0075793 -3.5281873 -2.0849521 318.64001
-25.6936 -22.620096 0 318.64001
-4.3009653 -3.7864778 -2.0856388 318.64001
-25.69268 -22.619287 0.79473758 318.64001
-4.6390595 -4.0841289 -2.0884433 318.64001
-25.710693 -22.635143 1.5974388 318.64001
-5.0384302 -4.4357262 -2.0946553 318.64001
-25.726851 -22.649368 2.3968325 318.64001
-5.5526385 -4.8884239 -2.121305 318.64001
-25.791758 -22.706512 3.2058864 318.64001
-6.1588163 -5.4220901 -2.1480787 318.64001
-25.765709 -22.683578 4.0144005 318.64001
-6.9164228 -6.0890703 -2.1833961 318.64001
-25.76613 -22.68395 4.8245749 318.64001
-7.8277287 -6.8913646 -2.2167544 318.64001
-25.79216 -22.706865 5.6456847 318.64001
-9.0075111 -7.9300199 -2.2610774 318.64001
-25.820253 -22.731598 6.4814343 318.64001
-10.661886 -9.3304892 -2.3277264 318.81
-11.817481 -10.341781 -2.2070069 318.81
-14.422534 -12.621528 -2.2412438 318.81
-14.198782 -12.425716 -1.7603022 318.81
-25.813457 -22.590017 -2.3986461 318.81
-3.5239725 -3.0839183 -2.0849321 318.81
-25.816828 -22.592966 -1.5998613 318.81
-3.7594242 -3.2899685 -2.0866799 318.81
-25.816858 -22.592993 -0.79650164 318.81
-4.0180302 -3.5162811 -2.0849521 318.81
-25.841875 -22.614885 0 318.81
-4.3065238 -3.768749 -2.0829027 318.81
-25.843941 -22.616693 0.79733723 318.81
-4.6511569 -4.0703464 -2.0884433 318.81
-25.869448 -22.639015 1.603122 318.81
-5.0587525 -4.4270439 -2.0976338 318.81
-25.873514 -22.642574 2.4042265 318.81
-5.5700116 -4.8744597 -2.1224077 318.81
-25.939938 -22.700703 3.2159188 318.81
-6.1705089 -5.3999701 -2.1465592 318.81
-25.912127 -22.676365 4.0267124 318.81
-6.9373879 -6.0710855 -2.1843185 318.81
-25.919765 -22.68305 4.8407187 318.81
-7.8496132 -6.8693976 -2.2171702 318.81
-25.954468 -22.713419 5.6664362 318.81
-9.0383959 -7.9097309 -2.262929 318.81
-25.974848 -22.731255 6.5032821 318.81
-10.701571 -9.3060131 -2.3299961 318.98999
-11.846924 -10.302004 -2.2064502 318.98999
-14.427637 -12.546176 -2.2359009 318.98999
-14.293346 -12.429397 -1.7671762 318.98999
-25.964092 -22.578197 -2.4060402 318.98999
-3.5308859 -3.0704346 -2.0833051 318.98999
-25.970594 -22.583853 -1.6049854 318.98999
-3.7669563 -3.2757196 -2.0851381 318.98999
-25.973709 -22.586561 -0.79914767 318.98999
-4.0318689 -3.5060856 -2.0864069 318.98999
-25.998817 -22.608397 0 318.98999
-4.3197603 -3.7564344 -2.0835867 318.98999
-26.003885 -22.612801 0.80007607 318.98999
-4.6624918 -4.054471 -2.0878029 318.98999
-26.015821 -22.62318 1.6077803 318.98999
-5.0711951 -4.4098768 -2.0970383 318.98999
-26.034851 -22.639729 2.4125974 318.98999
-5.5852976 -4.8569369 -2.1224077 318.98999
-26.09828 -22.694887 3.2266943 318.98999
-6.1947432 -5.3869061 -2.1490917 318.98999
-26.073177 -22.673058 4.0406504 318.98999
-6.963769 -6.0556464 -2.1866241 318.98999
-26.079073 -22.678185 4.857141 318.98999
-7.8726315 -6.8459868 -2.217586 318.98999
-26.118029 -22.712059 5.6865392 318.98999
-9.0661659 -7.8838763 -2.2636695 318.98999
-26.133635 -22.725632 6.5251303 318.98999
-10.72901 -9.2773838 -2.3303204 319.14999
-11.868155 -10.262404 -2.2050586 319.14999
-14.420544 -12.469457 -2.2293966 319.14999
-14.463568 -12.50666 -1.7838967 319.14999
-26.120609 -22.586512 -2.41469 319.14999
-3.5463567 -3.0665379 -2.0873725 319.14999
-26.127254 -22.592258 -1.6107618 319.14999
-3.7774851 -3.2663946 -2.0859089 319.14999
-26.124403 -22.589794 -0.80184013 319.14999
-4.0388255 -3.4923759 -2.0849521 319.14999
-26.152622 -22.614195 0 319.14999
-4.3288121 -3.7431273 -2.0829027 319.14999
-26.153139 -22.614641 0.8027221 319.14999
-4.676662 -4.0439138 -2.0890834 319.14999
-26.169567 -22.628847 1.6133704 319.14999
-5.0863781 -4.3981957 -2.0982296 319.14999
-26.18852 -22.645237 2.4209683 319.14999
-5.6002932 -4.8425784 -2.1229589 319.14999
-26.253439 -22.701372 3.2380271 319.14999
-6.2097616 -5.3695865 -2.1490917 319.14999
-26.220537 -22.67292 4.0536594 319.14999
-6.9821243 -6.0374489 -2.1870852 319.14999
-26.229193 -22.680405 4.8732853 319.14999
-7.8991175 -6.8303738 -2.2196653 319.14999
-26.267935 -22.713905 5.7053452 319.14999
-9.0911198 -7.8610992 -2.26441 319.14999
-26.295116 -22.73741 6.5495701 319.14999
-10.760979 -9.2493687 -2.3312931 319.32001
-11.906062 -10.233601 -2.2064502 319.32001
-14.451452 -12.421435 -2.2284672 319.32001
-14.674281 -12.612964 -1.8052619 319.32001
-26.272238 -22.581739 -2.4225028 319.32001
-3.5526686 -3.0536201 -2.0857456 319.32001
-26.279015 -22.587564 -1.6159791 319.32001
-3.7801623 -3.2491574 -2.0820549 319.32001
-26.282291 -22.59038 -0.80462539 319.32001
-4.0534081 -3.48402 -2.0871344 319.32001
-26.310608 -22.614719 0 319.32001
-4.3441749 -3.7339423 -2.0849547 319.32001
-26.311102 -22.615143 0.80550742 319.32001
-4.6872029 -4.0287848 -2.0884433 319.32001
-26.322952 -22.62533 1.618681 319.32001
-5.0979576 -4.3818402 -2.0976338 319.32001
-26.340324 -22.640261 2.4287808 319.32001
-5.6160946 -4.8271937 -2.1235101 319.32001
-26.40374 -22.694767 3.2482452 319.32001
-6.2271338 -5.3523993 -2.1495984 319.32001
-26.382599 -22.676598 4.0682945 319.32001
-7.001483 -6.0179749 -2.1875463 319.32001
-26.38649 -22.679941 4.889986 319.32001
-7.9193487 -6.8069067 -2.2196653 319.32001
-26.416033 -22.705334 5.7228541 319.32001
-9.1099329 -7.8302474 -2.2632992 319.32001
-26.431028 -22.718224 6.5666041 319.32001
-10.792876 -9.2212448 -2.3322656 319.48999
-11.934868 -10.196943 -2.206172 319.48999
-14.349297 -12.259789 -2.2070956 319.48999
-26.42407 -22.576265 -2.4303155 319.48999
-3.5672698 -3.0478132 -2.0889995 319.48999
-26.438574 -22.588655 -1.6216623 319.48999
-3.7953985 -3.2427225 -2.0851381 319.48999
-26.440413 -22.590229 -0.80741072 319.48999
-4.0580621 -3.4671373 -2.0842245 319.48999
-26.458183 -22.60541 0 319.48999
-4.3523769 -3.7185948 -2.0835867 319.48999
-26.460176 -22.607113 0.80801415 319.48999
-4.7063389 -4.0210142 -2.0916443 319.48999
-26.48414 -22.627588 1.6244572 319.48999
-5.1109362 -4.3666949 -2.0976338 319.48999
-26.501431 -22.642361 2.4374306 319.48999
-5.6303926 -4.8105092 -2.1235101 319.48999
-26.564829 -22.696526 3.2597637 319.48999
-6.2474003 -5.3376698 -2.1511178 319.48999
-26.535852 -22.67177 4.0815353 319.48999
-7.023747 -6.000967 -2.1889296 319.48999
-26.536484 -22.67231 4.9052949 319.48999
-7.9439726 -6.7871919 -2.2209127 319.48999
-26.580814 -22.710184 5.7439299 319.48999
-9.1405973 -7.809567 -2.2651508 319.48999
-26.608894 -22.734177 6.5940065 319.48999
-10.820288 -9.1860161 -2.3319416 319.67001
-11.972882 -10.164525 -2.2072854 319.67001
-14.399856 -12.224934 -2.2089541 319.67001
-14.461104 -12.276932 -1.7697772 319.67001
-26.578516 -22.564157 -2.4379888 319.67001
-3.5712557 -3.0318613 -2.0857456 319.67001
-26.600788 -22.583065 -1.6272522 319.67001
-3.805567 -3.2307827 -2.0851381 319.67001
-26.599659 -22.582106 -0.81010312 319.67001
-4.0703545 -3.4555771 -2.0849521 319.67001
-26.623598 -22.60243 0 319.67001
-4.3640375 -3.7049031 -2.0835867 319.67001
-26.631668 -22.60928 0.81107801 319.67001
-4.708837 -3.9976249 -2.0871627 319.67001
-26.654093 -22.628319 1.6305131 319.67001
-5.1304512 -4.3555593 -2.1000168 319.67001
-26.654564 -22.628717 2.4449644 319.67001
-5.65134 -4.7977743 -2.1257153 319.67001
-26.72253 -22.686419 3.2703536 319.67001
-6.2670879 -5.3205214 -2.1521308 319.67001
-26.697807 -22.66543 4.0954738 319.67001
-7.041081 -5.977612 -2.1884685 319.67001
-26.701189 -22.668301 4.9225526 319.67001
-7.9667473 -6.7634678 -2.2213285 319.67001
-26.73929 -22.700647 5.7627358 319.67001
-9.166585 -7.7820845 -2.265521 319.67001
-26.771582 -22.728062 6.6165953 319.67001
-10.859562 -9.164053 -2.3345354 319.84
-12.007529 -10.132789 -2.2081203 319.84
-14.474018 -12.214183 -2.2147615 319.84
-14.485292 -12.223697 -1.7682909 319.84
-26.745983 -22.57012 -2.4471967 319.84
-3.5816319 -3.0224302 -2.0865591 319.84
-26.754705 -22.57748 -1.6325628 319.84
-3.8137259 -3.218287 -2.0843673 319.84
-26.753645 -22.576586 -0.81274921 319.84
-4.0820131 -3.4446867 -2.0856795 319.84
-26.777668 -22.596857 0 319.84
-4.3735747 -3.6907263 -2.0829027 319.84
-26.796431 -22.612692 0.81404901 319.84
-4.7337103 -3.9946337 -2.0929248 319.84
-26.803564 -22.618711 1.6355441 319.84
-5.1375155 -4.335393 -2.0976338 319.84
-26.819172 -22.631882 2.4538932 319.84
-5.6728964 -4.7871847 -2.1284716 319.84
-26.884081 -22.686657 3.281872 319.84
-6.2784109 -5.2981596 -2.1506114 319.84
-26.859064 -22.665546 4.1098762 319.84
-7.0617609 -5.9592047 -2.1893907 319.84
-26.868229 -22.673279 4.9409232 319.84
-7.9957504 -6.7473702 -2.2238235 319.84
-26.90004 -22.700123 5.7828388 319.84
-9.1926384 -7.7573872 -2.2662616 319.84
-26.918509 -22.71571 6.6362214 319.84
-10.894346 -9.134964 -2.3358324 320.01999
-12.048409 -10.102651 -2.2097905 320.01999
-14.52754 -12.181415 -2.2170846 320.01999
-14.448853 -12.115435 -1.7591875 320.01999
-26.90237 -22.557772 -2.4550092 320.01999
-3.5939097 -3.0135112 -2.088186 320.01999
-26.914293 -22.567768 -1.6379664 320.01999
-3.8238175 -3.20629 -2.0843673 320.01999
-26.924026 -22.57593 -0.81576657 320.01999
-4.0899596 -3.4294515 -2.0842245 320.01999
-26.932816 -22.5833 0 320.01999
-4.3837075 -3.6757607 -2.0822186 320.01999
-26.950073 -22.597771 0.81655574 320.01999
-4.7491398 -3.9821775 -2.0942054 320.01999
-26.966343 -22.611412 1.6411341 320.01999
-5.1525731 -4.3204579 -2.0982296 320.01999
-26.991041 -22.632122 2.4631011 320.01999
-5.680542 -4.7631626 -2.1257153 320.01999
-27.040672 -22.673737 3.2922759 320.01999
-6.2979894 -5.2808957 -2.1516242 320.01999
-27.029079 -22.664017 4.1249757 320.01999
-7.0714998 -5.9294877 -2.1866241 320.01999
-27.027348 -22.662565 4.9570675 320.01999
-8.0139103 -6.7197037 -2.2229917 320.01999
-27.064981 -22.69412 5.8029418 320.01999
-9.2199755 -7.7309952 -2.2670023 320.01999
-27.08462 -22.710588 6.6595507 320.01999
-10.922918 -9.1038628 -2.3361566 320.19
-12.079852 -10.068126 -2.2100689 320.19
-14.557515 -12.133169 -2.2161553 320.19
-14.570399 -12.143909 -1.7695913 320.19
-27.058073 -22.551939 -2.4631011 320.19
-3.6028352 -3.0028346 -2.088186 320.19
-27.079353 -22.569675 -1.6439291 320.19
-3.8304787 -3.1925673 -2.0828257 320.19
-27.084583 -22.574034 -0.81859827 320.19
-4.1001172 -3.4173012 -2.0842245 320.19
-27.113392 -22.598045 0 320.19
-4.3974819 -3.6651442 -2.0835867 320.19
-27.107622 -22.593237 0.81929463 320.19
-4.7507458 -3.9595773 -2.0897236 320.19
-27.129997 -22.611885 1.6470037 320.19
-5.171236 -4.3100405 -2.1006126 320.19
-27.145432 -22.624748 2.4710534 320.19
-5.6961265 -4.7475181 -2.1262665 320.19
-27.211847 -22.680103 3.3049092 320.19
-6.3180895 -5.265902 -2.1531439 320.19
-27.187761 -22.66003 4.1389141 320.19
-7.1025162 -5.9196939 -2.1907742 320.19
-27.188797 -22.660892 4.9743252 320.19
-8.0353155 -6.6971488 -2.2234075 320.19
-27.220125 -22.687004 5.8217478 320.19
-9.2504225 -7.709897 -2.2688537 320.19
-27.245491 -22.708143 6.6825094 320.19
-10.955961 -9.0764503 -2.3374536 320.35999
-12.112722 -10.034767 -2.2106256 320.35999
-14.573565 -12.073448 -2.2131355 320.35999
-14.495956 -12.009154 -1.756215 320.35999
-27.227804 -22.556835 -2.4724483 320.35999
-3.6061008 -2.987469 -2.0849321 320.35999
-27.240046 -22.566977 -1.6496123 320.35999
-3.8427768 -3.1835427 -2.0843673 320.35999
-27.254604 -22.579037 -0.82170856 320.35999
-4.1145425 -3.4086866 -2.0864069 320.35999
-27.26195 -22.585121 0 320.35999
-4.4083371 -3.6520805 -2.0835867 320.35999
-27.2777 -22.598171 0.82240486 320.35999
-4.7595553 -3.9430466 -2.0884433 320.35999
-27.295431 -22.61286 1.6529663 320.35999
-5.1825309 -4.2934604 -2.1000168 320.35999
-27.312305 -22.626841 2.4801216 320.35999
-5.7131486 -4.7330494 -2.1273692 320.35999
-27.38023 -22.683111 3.3171711 320.35999
-6.3366656 -5.2496014 -2.1541569 320.35999
-27.349718 -22.657835 4.1533165 320.35999
-7.120049 -5.8985944 -2.1907742 320.35999
-27.348948 -22.657196 4.9913039 320.35999
-8.0611773 -6.6782703 -2.225071 320.35999
-27.395222 -22.695532 5.844769 320.35999
-9.2656898 -7.676147 -2.2670023 320.35999
-27.399017 -22.698675 6.7036166 320.35999
-10.981209 -9.0489912 -2.3377779 320.51001
-12.135895 -10.000503 -2.2100689 320.51001
-14.60359 -12.03399 -2.212903 320.51001
-14.565766 -12.002823 -1.7608595 320.51001
-27.382227 -22.56414 -2.4810982 320.51001
-3.6124997 -2.976856 -2.0841186 320.51001
-27.393082 -22.573086 -1.6552955 320.51001
-3.8496737 -3.172298 -2.0835965 320.51001
-27.404663 -22.582628 -0.82444739 320.51001
-4.1220145 -3.3967183 -2.0856795 320.51001
-27.424397 -22.59889 0 320.51001
-4.4178834 -3.640527 -2.0835867 320.51001
-27.433981 -22.606789 0.82532942 320.51001
-4.7830219 -3.9414172 -2.0942054 320.51001
-27.45167 -22.621365 1.6588358 320.51001
-5.1981735 -4.2835202 -2.1018043 320.51001
-27.468451 -22.635193 2.4889109 320.51001
-5.7255201 -4.7180762 -2.1273692 320.51001
-27.536337 -22.691135 3.3288753 320.51001
-6.3518806 -5.2342243 -2.1546633 320.51001
-27.507055 -22.667006 4.1681838 320.51001
-7.1384711 -5.8824091 -2.1916964 320.51001
-27.507519 -22.667387 5.0093966 320.51001
-8.0786324 -6.6571431 -2.225071 320.51001
-27.548975 -22.701548 5.864872 320.51001
-9.2963715 -7.6606126 -2.2695944 320.51001
-27.567556 -22.71686 6.7302785 320.51001
-11.020319 -9.0200272 -2.3397233 320.70001
-12.167459 -9.9589491 -2.2097905 320.70001
-14.655713 -11.995563 -2.2147615 320.70001
-14.767293 -12.086889 -1.7803668 320.70001
-3.6251791 -2.9671748 -2.0857456 320.70001
-27.576006 -22.5707 -1.6618172 320.70001
-3.8616004 -3.1606834 -2.0843673 320.70001
-27.576878 -22.571411 -0.82737195 320.70001
-4.131814 -3.3818505 -2.0849521 320.70001
-27.592047 -22.583828 0 320.70001
-4.4270229 -3.623476 -2.0822186 320.70001
-27.598539 -22.589142 0.82802188 320.70001
-4.7902007 -3.9207339 -2.0916443 320.70001
-27.62084 -22.607397 1.664519 320.70001
-5.2108722 -4.2650495 -2.1012084 320.70001
-27.64217 -22.624855 2.4978399 320.70001
-5.7455974 -4.7027168 -2.1290228 320.70001
-27.703892 -22.675373 3.3400223 320.70001
-6.3706999 -5.2143574 -2.1551697 320.70001
-27.683527 -22.658705 4.183516 320.70001
-7.1609502 -5.8611698 -2.1926186 320.70001
-27.688286 -22.6626 5.0286026 320.70001
-8.1112614 -6.6389904 -2.2279816 320.70001
-27.721846 -22.690067 5.885623 320.70001
-9.3278074 -7.6347218 -2.2710755 320.70001
-27.735512 -22.701254 6.7528672 320.70001
-11.04091 -8.9823074 -2.3384264 320.87
-12.190808 -9.9178047 -2.2086771 320.87
-14.75596 -12.004678 -2.2245181 320.87
-14.80618 -12.045534 -1.7807384 320.87
-27.710726 -22.543999 -2.4979794 320.87
-3.6353843 -2.9575586 -2.0865591 320.87
-27.746687 -22.573254 -1.6680593 320.87
-3.8652351 -3.1445532 -2.081284 320.87
-27.733685 -22.562675 -0.83006442 320.87
-4.14183 -3.3695762 -2.0849521 320.87
-27.755121 -22.580116 0 320.87
-4.4377542 -3.6103249 -2.0822186 320.87
-27.770908 -22.59296 0.83117855 320.87
-4.8091617 -3.9124827 -2.0948455 320.87
-27.79163 -22.609818 1.6707612 320.87
-5.2264662 -4.2519798 -2.1024001 320.87
-27.808228 -22.623322 2.5067687 320.87
-5.7669821 -4.6917152 -2.1317792 320.87
-27.880724 -22.682301 3.3532131 320.87
-6.3831415 -5.1929903 -2.1541569 320.87
-27.849255 -22.656698 4.1983833 320.87
-7.1798191 -5.8411255 -2.1930797 320.87
-27.849121 -22.65659 5.0455818 320.87
-8.1309242 -6.6148949 -2.2279816 320.87
-27.882431 -22.683689 5.9054017 320.87
-9.3488941 -7.605772 -2.2707052 320.87
-27.90337 -22.700724 6.7773075 320.87
-11.093631 -8.9674273 -2.3436141 321.04999
-12.209583 -9.8694963 -2.2064502 321.04999
-14.798235 -11.962008 -2.225215 321.04999
-15.003462 -12.1279 -1.7998742 321.04999
-27.891577 -22.545881 -2.5078847 321.04999
-3.6403949 -2.9426775 -2.0841186 321.04999
-27.909134 -22.560074 -1.6735562 321.04999
-3.8779652 -3.1347151 -2.0828257 321.04999
-27.913279 -22.563423 -0.83331394 321.04999
-4.1509466 -3.3553765 -2.0842245 321.04999
-27.931688 -22.578304 0 321.04999
-4.4490747 -3.5963655 -2.0822186 321.04999
-27.939713 -22.584791 0.83410311 321.04999
-4.817009 -3.8937817 -2.0929248 321.04999
-27.951084 -22.593983 1.6760716 321.04999
-5.2353439 -4.2319388 -2.1006126 321.04999
-27.983122 -22.619881 2.5161159 321.04999
-5.7742171 -4.6675315 -2.1290228 321.04999
-28.046314 -22.670961 3.3645458 321.04999
-6.4054432 -5.1777768 -2.1561828 321.04999
-28.0238 -22.652763 4.2139473 321.04999
-7.2011609 -5.8209872 -2.1940019 321.04999
-28.017199 -22.647425 5.0631175 321.04999
-8.1531868 -6.590548 -2.2283976 321.04999
-28.060993 -22.682827 5.9280987 321.04999
-9.3712139 -7.5751286 -2.270335 321.04999
-28.0739 -22.69326 6.8013773 321.04999
-11.12942 -8.9418888 -2.3455596 321.22
-12.237269 -9.8319864 -2.206172 321.22
-14.82437 -11.910583 -2.2238212 321.22
-14.8236 -11.909964 -1.7740501 321.22
-28.060999 -22.5455 -2.5170927 321.22
-3.653383 -2.9352963 -2.0865591 321.22
-28.088083 -22.567261 -1.6802642 321.22
-3.8886878 -3.124351 -2.0835965 321.22
-28.081417 -22.561905 -0.83633137 321.22
-4.1637883 -3.3453794 -2.0856795 321.22
-28.107695 -22.583017 0 321.22
-4.4597254 -3.583149 -2.0822186 321.22
-28.109474 -22.584446 0.83716691 321.22
-4.8359261 -3.8854058 -2.0961261 321.22
-28.125462 -22.597292 1.6825002 321.22
-5.2538304 -4.2211695 -2.1029956 321.22
-28.154318 -22.620478 2.5254633 321.22
-5.7850432 -4.6479702 -2.1279204 321.22
-28.209703 -22.664976 3.3760645 321.22
-6.4207778 -5.1587486 -2.1561828 321.22
-28.199287 -22.656609 4.2302084 321.22
-7.225986 -5.8056903 -2.1963074 321.22
-28.196978 -22.654751 5.0834365 321.22
-8.1803303 -6.5724545 -2.2304766 321.22
-28.215864 -22.669926 5.9465804 321.22
-9.3997774 -7.5522141 -2.2718163 321.22
-28.246828 -22.694803 6.8269281 321.22
-11.160529 -8.9125223 -2.3465323 321.39001
-12.263292 -9.7931623 -2.2056153 321.39001
-14.816182 -11.831837 -2.2173169 321.39001
-16.565876 -13.2291 -1.9778551 321.39001
-28.227547 -22.541822 -2.5260215 321.39001
-3.6606483 -2.9233034 -2.0857456 321.39001
-28.253269 -22.562363 -1.6861337 321.39001
-3.8936145 -3.1093445 -2.081284 321.39001
-28.256042 -22.564577 -0.83953446 321.39001
-4.1649613 -3.3260353 -2.0813146 321.39001
-28.268345 -22.574402 0 321.39001
-4.4674001 -3.5675554 -2.0808506 321.39001
-28.276354 -22.580797 0.8401379 321.39001
-4.8385496 -3.8639462 -2.0922847 321.39001
-28.292297 -22.593529 1.6884629 321.39001
-5.2588725 -4.1996059 -2.1000168 321.39001
-28.319529 -22.615276 2.5342526 321.39001
-5.8063202 -4.6367836 -2.1306767 321.39001
-28.387308 -22.669403 3.389255 321.39001
-6.4405913 -5.1432972 -2.1577024 321.39001
-28.357969 -22.645975 4.2439141 321.39001
-7.2386179 -5.7805815 -2.1949241 321.39001
-28.356928 -22.645144 5.1001372 321.39001
-8.198266 -6.5469332 -2.2300608 321.39001
-28.394039 -22.674778 5.9699259 321.39001
-9.4282866 -7.5291972 -2.2732973 321.39001
-28.413868 -22.690613 6.8509979 321.39001
-11.183835 -8.8737373 -2.3455596 321.57001
-12.293998 -9.7545881 -2.2056153 321.57001
-14.811264 -11.751895 -2.2110448 321.57001
-23.260593 -18.455957 -2.7702234 321.57001
-28.407629 -22.539837 -2.5357873 321.57001
-3.6712453 -2.9129243 -2.0865591 321.57001
-28.419477 -22.549238 -1.6918169 321.57001
-3.906255 -3.0993912 -2.0828257 321.57001
-28.428602 -22.556479 -0.84255183 321.57001
-4.1783085 -3.3152502 -2.0827696 321.57001
-28.434696 -22.561314 0 321.57001
-4.4830027 -3.5570076 -2.0829027 321.57001
-28.448963 -22.572634 0.84315532 321.57001
-4.8536329 -3.8510818 -2.093565 321.57001
-28.469559 -22.588976 1.6947982 321.57001
-5.2780223 -4.1878104 -2.1024001 321.57001
-28.490463 -22.605562 2.5431814 321.57001
-5.8238702 -4.6209097 -2.1317792 321.57001
-28.564465 -22.664276 3.4018884 321.57001
-6.4521704 -5.1194301 -2.1561828 321.57001
-28.536348 -22.641968 4.259943 321.57001
-7.2552176 -5.7566023 -2.194463 321.57001
-28.530329 -22.637194 5.1185083 321.57001
-8.2233915 -6.5247931 -2.2313082 321.57001
-28.571808 -22.670103 5.9922986 321.57001
-9.4518938 -7.4995403 -2.2732973 321.57001
-28.589708 -22.684307 6.8761787 321.57001
-11.200825 -8.836359 -2.3439384 321.73001
-12.32119 -9.7202187 -2.2056153 321.73001
-14.853381 -11.717871 -2.2124386 321.73001
-23.202602 -18.304592 -2.7572184 321.73001
-28.567577 -22.537035 -2.5444372 321.73001
-3.6736276 -2.8981345 -2.0833051 321.73001
-28.599974 -22.562593 -1.6988044 321.73001
-3.9105482 -3.0850415 -2.080513 321.73001
-28.584097 -22.550068 -0.84529072 321.73001
-4.1831622 -3.3001075 -2.0805871 321.73001
-28.604362 -22.566055 0 321.73001
-4.4884915 -3.5409827 -2.0808506 321.73001
-28.617064 -22.576075 0.84626555 321.73001
-4.8628807 -3.8363392 -2.0929248 321.73001
-28.640755 -22.594765 1.7012267 321.73001
-5.2911954 -4.1742377 -2.1029956 321.73001
-28.667826 -22.616121 2.5533659 321.73001
-5.8367515 -4.6046286 -2.1317792 321.73001
-28.719885 -22.65719 3.4128497 321.73001
-6.4709988 -5.1049876 -2.1577024 321.73001
-28.702396 -22.643394 4.2752748 321.73001
-7.2743206 -5.7387304 -2.1953852 321.73001
-28.706942 -22.64698 5.1388278 321.73001
-8.2431154 -6.5030155 -2.231724 321.73001
-28.738815 -22.672125 6.0140228 321.73001
-9.4774294 -7.476768 -2.2744083 321.73001
-28.764044 -22.692028 6.9028406 321.73001
-11.213034 -8.7953024 -2.3413446 321.89001
-12.343611 -9.682106 -2.2047803 321.89001
-14.889172 -11.678799 -2.212903 321.89001
-23.363308 -18.325758 -2.7702234 321.89001
-28.740288 -22.543365 -2.554203 321.89001
-3.6860194 -2.8912473 -2.0857456 321.89001
-28.768188 -22.56525 -1.7050465 321.89001
-3.9249563 -3.0786653 -2.0835965 321.89001
-28.760231 -22.559008 -0.84863305 321.89001
-4.1967592 -3.2918625 -2.0827696 321.89001
-28.788439 -22.581133 0 321.89001
-4.5013199 -3.5307546 -2.0822186 321.89001
-28.793268 -22.584923 0.84960794 321.89001
-4.8750658 -3.8239141 -2.093565 321.89001
-28.812202 -22.599775 1.7076553 321.89001
-5.3073382 -4.1629806 -2.1047831 321.89001
-28.834478 -22.617247 2.5625739 321.89001
-5.8465619 -4.585938 -2.1306767 321.89001
-28.891155 -22.661703 3.4256687 321.89001
-6.4867516 -5.0880914 -2.1582088 321.89001
-28.878054 -22.651426 4.2920008 321.89001
-7.2933803 -5.7207966 -2.1963074 321.89001
-28.874481 -22.648624 5.1574769 321.89001
-8.2643223 -6.4823856 -2.2325556 321.89001
-28.920031 -22.684353 6.0386648 321.89001
-9.4998178 -7.4514861 -2.2747786 321.89001
-28.932457 -22.694099 6.928021 321.89001
-11.24375 -8.7656345 -2.3423171 322.06
-12.370722 -9.6442223 -2.2045019 322.06
-14.909657 -11.623578 -2.2108123 322.06
-23.466263 -18.294313 -2.7759826 322.06
-28.910898 -22.538954 -2.563411 322.06
-3.6960225 -2.8814213 -2.0865591 322.06
-28.94058 -22.562094 -1.7112888 322.06
-3.9340737 -3.0670061 -2.0835965 322.06
-28.923227 -22.548565 -0.85146481 322.06
-4.2006307 -3.2748144 -2.0798597 322.06
-28.951527 -22.570627 0 322.06
-4.508812 -3.5150723 -2.0808506 322.06
-28.967381 -22.582987 0.85276461 322.06
-4.8878846 -3.8105977 -2.0942054 322.06
-28.981544 -22.59403 1.7137111 322.06
-5.3166552 -4.1448674 -2.1035914 322.06
-29.002159 -22.6101 2.5715027 322.06
-5.8646917 -4.5721169 -2.1323307 322.06
-29.06349 -22.657913 3.4381163 322.06
-6.5048714 -5.0712018 -2.1592219 322.06
-29.056364 -22.652359 4.3084941 322.06
-7.3149266 -5.7027211 -2.197691 322.06
-29.05089 -22.648092 5.1769609 322.06
-8.2850618 -6.4590392 -2.2329717 322.06
-29.083708 -22.673676 6.0587678 322.06
