# .PCD v0.7 - Point Cloud Data file format
VERSION 0.7
FIELDS x y z intensity
SIZE 4 4 4 4
TYPE F F F F
COUNT 1 1 1 1
WIDTH 1321
HEIGHT 1
VIEWPOINT 0 0 0 1 0 0 0
POINTS 1321
DATA ascii
-4.7803383 -1.1247396 -1.9176321 346.76001
-5.1059384 -1.2013484 -1.9091564 346.76001
-5.4889107 -1.2914559 -1.9053363 346.76001
-5.9470773 -1.3992554 -1.9063984 346.76001
-6.6285744 -1.5596011 -1.952615 346.76001
-7.5523238 -1.776945 -2.0310767 346.76001
-9.1688347 -2.157285 -2.2318137 346.76001
-11.64667 -2.7402816 -2.5431757 346.76001
-13.474508 -3.1703436 -2.6080525 346.76001
-16.102776 -3.7442708 -2.7161672 346.91
-19.751778 -4.5927486 -2.8499868 346.91
-24.417757 -5.6776977 -2.9316437 346.91
-4.1998911 -0.97657257 -1.9197969 346.91
-4.4776378 -1.0411552 -1.9201771 346.91
-4.7814517 -1.111799 -1.9169046 346.91
-5.1054049 -1.1871257 -1.9077884 346.91
-5.4904275 -1.2766523 -1.9046961 346.91
-5.9451413 -1.3823839 -1.9046111 346.91
-6.6326346 -1.5422422 -1.952615 346.91
-7.5550652 -1.7567289 -2.03057 346.91
-9.17066 -2.1323922 -2.2308915 346.91
-11.651899 -2.7093382 -2.5427599 346.91
-13.480848 -3.1346114 -2.607682 346.91
-16.130493 -3.6943762 -2.718761 347.10001
-19.77269 -4.5285506 -2.8508217 347.10001
-24.469368 -5.6042333 -2.9355927 347.10001
-4.1995444 -0.96182412 -1.91817 347.10001
-4.4810658 -1.026301 -1.9201771 347.10001
-4.7832961 -1.0955211 -1.9161772 347.10001
-5.1111455 -1.1706086 -1.9084724 347.10001
-5.4946308 -1.2584383 -1.9046961 347.10001
-5.9441099 -1.3613828 -1.9028239 347.10001
-6.635838 -1.5198098 -1.9520638 347.10001
-7.5589633 -1.7312337 -2.0300636 347.10001
-9.1757841 -2.1015351 -2.2304304 347.10001
-11.664634 -2.6715577 -2.5435917 347.10001
-13.502664 -3.0925229 -2.6099041 347.10001
-16.13946 -3.646065 -2.7184367 347.26999
-19.776381 -4.4676819 -2.8494301 347.26999
-24.524641 -5.5403614 -2.9402387 347.26999
-4.2077265 -0.95056742 -1.9206104 347.26999
-62.721527 -14.169419 -2.9986684 347.26999
-4.4858913 -1.0134076 -1.920948 347.26999
-4.788343 -1.0817345 -1.9169046 347.26999
-5.1200957 -1.1566808 -1.9105245 347.26999
-5.4983401 -1.24213 -1.9046961 347.26999
-5.9462609 -1.3433197 -1.9022281 347.26999
-6.6121893 -1.4937596 -1.9437946 347.26999
-7.5565176 -1.7070929 -2.0280375 347.26999
-9.174386 -2.0725853 -2.2285857 347.26999
-11.678233 -2.6382296 -2.5448391 347.26999
-13.51178 -3.0524459 -2.6099041 347.26999
-16.13287 -3.5942998 -2.7155187 347.44
-19.789549 -4.4089847 -2.8494301 347.44
-24.581688 -5.4766426 -2.945117 347.44
-31.336283 -6.9815226 -2.9952075 347.44
-4.208745 -0.93768138 -1.9197969 347.44
-62.691143 -13.967184 -2.9952211 347.44
-4.4888783 -1.0000933 -1.920948 347.44
-4.7897129 -1.0671173 -1.9161772 347.44
-5.1290083 -1.1427102 -1.9125767 347.44
-5.4964533 -1.2245746 -1.9027754 347.44
-5.9446297 -1.3244253 -1.9004409 347.44
-6.6297278 -1.4770608 -1.9476535 347.44
-7.5634379 -1.6850855 -2.0285442 347.44
-9.1766958 -2.0445089 -2.2276635 347.44
-11.682191 -2.6027172 -2.5440075 347.44
-13.515022 -3.0110602 -2.608793 347.44
-16.136372 -3.5419068 -2.7142217 347.62
-19.809107 -4.3480663 -2.850265 347.62
-24.635637 -5.4074817 -2.9495308 347.62
-4.2098851 -0.92406285 -1.9189835 347.62
-62.660561 -13.753889 -2.9916809 347.62
-4.4919982 -0.98598611 -1.920948 347.62
-4.7930417 -1.0520648 -1.9161772 347.62
-5.1178875 -1.1233679 -1.9071044 347.62
-54.450703 -11.951839 1.2942803 347.62
-5.5021238 -1.2077072 -1.9034156 347.62
-5.9450316 -1.3049246 -1.8992493 347.62
-6.6118016 -1.4512795 -1.9410383 347.62
-7.5668049 -1.6609012 -2.0280375 347.62
-9.1811724 -2.0152521 -2.2272024 347.62
-11.69031 -2.5660038 -2.5440075 347.62
-13.526335 -2.969008 -2.6091633 347.62
-16.14295 -3.4931788 -2.7135732 347.79001
-19.818048 -4.2884345 -2.8497083 347.79001
-24.696228 -5.3440256 -2.9548738 347.79001
-31.421164 -6.7992368 -2.9992948 347.79001
-4.2126083 -0.91156781 -1.9189835 347.79001
-62.622986 -13.55101 -2.9879541 347.79001
-4.4931002 -0.97226346 -1.9201771 347.79001
-4.7925005 -1.0370508 -1.9147222 347.79001
-5.1322193 -1.1105628 -1.9112085 347.79001
-5.5056829 -1.1913767 -1.9034156 347.79001
-5.9432793 -1.2860682 -1.8974621 347.79001
-6.6160789 -1.4316555 -1.9410383 347.79001
-7.5698085 -1.6380335 -2.0275311 347.79001
-9.1814051 -1.9867675 -2.2258191 347.79001
-11.699784 -2.5317204 -2.5444233 347.79001
-13.5274 -2.9271989 -2.607682 347.79001
-19.824137 -4.2318349 -2.8488734 347.95001
-24.744081 -5.2820902 -2.958823 347.95001
-31.395237 -6.7019043 -2.9950218 347.95001
-4.2151375 -0.89980048 -1.9189835 347.95001
-62.642998 -13.372328 -2.9871156 347.95001
-4.4957976 -0.95971262 -1.9201771 347.95001
-54.796303 -11.697303 -1.3008722 347.95001
-4.7935557 -1.0232747 -1.9139947 347.95001
-5.126111 -1.0942649 -1.9077884 347.95001
-53.765804 -11.477324 1.276408 347.95001
-5.5071354 -1.1756017 -1.9027754 347.95001
-5.9431129 -1.2686694 -1.8962706 347.95001
-6.6275716 -1.4147799 -1.9432434 347.95001
-7.5743532 -1.6168883 -2.0275311 347.95001
-9.1812077 -1.9599016 -2.2244358 347.95001
-11.706808 -2.4990387 -2.5444233 347.95001
-13.529756 -2.888181 -2.6065712 347.95001
-16.160126 -3.3936913 -2.7129247 348.14001
-19.81674 -4.1615953 -2.8458116 348.14001
-24.790623 -5.2061305 -2.9623075 348.14001
-31.401697 -6.5944829 -2.9935355 348.14001
-4.2198863 -0.88619316 -1.9197969 348.14001
-62.593151 -13.144814 -2.9826436 348.14001
-4.4845066 -0.94176447 -1.9140104 348.14001
-54.780003 -11.504021 -1.2995723 348.14001
-4.7969227 -1.0073731 -1.9139947 348.14001
-54.555973 -11.456974 0 348.14001
-5.127872 -1.0768738 -1.9071044 348.14001
-5.511004 -1.157333 -1.9027754 348.14001
-54.133083 -11.368166 2.5795107 348.14001
-5.9491558 -1.2493466 -1.8968663 348.14001
-6.6378708 -1.3939797 -1.9448972 348.14001
-7.5758862 -1.5909666 -2.0265181 348.14001
-9.1838474 -1.9286449 -2.2235136 348.14001
-11.716946 -2.4606056 -2.5448391 348.14001
-13.533488 -2.842087 -2.6054602 348.14001
-16.154079 -3.3453491 -2.7103307 348.29999
-19.845739 -4.1098547 -2.8483167 348.29999
-24.86731 -5.1497722 -2.9697411 348.29999
-31.39854 -6.5023251 -2.9914918 348.29999
-4.2187662 -0.8736645 -1.91817 348.29999
-62.54158 -12.951738 -2.9784513 348.29999
-4.4961548 -0.93110889 -1.9178646 348.29999
-54.900021 -11.369247 -1.3016614 348.29999
-4.8015413 -0.99435145 -1.9147222 348.29999
-54.699387 -11.327699 0 348.29999
-5.1308594 -1.0625498 -1.9071044 348.29999
-53.586258 -11.09718 1.2705125 348.29999
-5.5160694 -1.1423231 -1.9034156 348.29999
-5.9526215 -1.2327286 -1.8968663 348.29999
-6.6285596 -1.3727088 -1.9410383 348.29999
-7.5802994 -1.5698045 -2.0265181 348.29999
-9.1891975 -1.9029913 -2.2235136 348.29999
-11.723771 -2.4278762 -2.5448391 348.29999
-13.550995 -2.8062761 -2.6073117 348.29999
-16.178827 -3.3033838 -2.7129247 348.45999
-19.857138 -4.054419 -2.8483167 348.45999
-24.924412 -5.0890522 -2.9748516 348.45999
-4.2193995 -0.86151463 -1.9173565 348.45999
-62.534439 -12.768247 -2.9764016 348.45999
-4.5005455 -0.91891885 -1.9186355 348.45999
-4.802474 -0.98056644 -1.9139947 348.45999
-5.1319652 -1.0478417 -1.9064202 348.45999
-54.457466 -11.119095 1.2904273 348.45999
-5.5118122 -1.1253986 -1.9008547 348.45999
-5.950429 -1.2149552 -1.8950791 348.45999
-6.6380181 -1.3553468 -1.942692 348.45999
-7.5846539 -1.5486302 -2.0265181 348.45999
-9.1906624 -1.8765441 -2.2225912 348.45999
-11.724755 -2.3939538 -2.5435917 348.45999
-13.551076 -2.7668509 -2.6058307 348.45999
-16.166473 -3.245054 -2.7090337 348.64999
-19.884066 -3.9912767 -2.850265 348.64999
-25.021004 -5.0224009 -2.984376 348.64999
-4.2204418 -0.84715825 -1.916543 348.64999
-54.10677 -10.86071 -2.5735481 348.64999
-4.5053773 -0.90435261 -1.9194063 348.64999
-54.225471 -10.884537 -1.2840675 348.64999
-4.8002195 -0.96353555 -1.9118123 348.64999
-54.542061 -10.948085 0 348.64999
-5.1464672 -1.0330369 -1.9105245 348.64999
-5.5155139 -1.1071147 -1.9008547 348.64999
-5.9469376 -1.1937132 -1.8926961 348.64999
-6.6311669 -1.3310567 -1.9393845 348.64999
-7.5916443 -1.5238509 -2.0270245 348.64999
-9.1968346 -1.8460565 -2.2225912 348.64999
-11.740301 -2.3566 -2.5452549 348.64999
-13.554396 -2.7207384 -2.6047196 348.64999
-16.195391 -3.2008994 -2.7122762 348.82001
-19.899708 -3.9330299 -2.8508217 348.82001
-25.076719 -4.9562283 -2.9892545 348.82001
-4.2247291 -0.83498651 -1.9173565 348.82001
-62.470356 -12.346804 -2.9696002 348.82001
-4.5044198 -0.89026529 -1.9178646 348.82001
-54.563522 -10.784077 -1.2913094 348.82001
-4.8048849 -0.94964999 -1.9125397 348.82001
-54.134804 -10.699344 0 348.82001
-5.1439786 -1.0166694 -1.9084724 348.82001
-5.5131979 -1.0896428 -1.898934 348.82001
-5.9579449 -1.1775438 -1.8950791 348.82001
-6.6445169 -1.3132397 -1.9421408 348.82001
-7.5980306 -1.5016946 -2.0275311 348.82001
-9.1965437 -1.8176289 -2.2212079 348.82001
-11.737646 -2.319859 -2.5431757 348.82001
-13.570121 -2.682034 -2.6062009 348.82001
-16.21118 -3.151134 -2.713249 349
-19.911964 -3.8704939 -2.8508217 349
-25.170164 -4.8925843 -2.9985464 349
-4.2273316 -0.82171005 -1.9173565 349
-4.4981365 -0.87434918 -1.9140104 349
-4.8096738 -0.93490583 -1.9132673 349
-5.1489921 -1.0008627 -1.9091564 349
-54.55788 -10.604978 1.290381 349
-5.5296135 -1.0748481 -1.9034156 349
-5.9541187 -1.1573634 -1.8926961 349
-6.6335125 -1.2894242 -1.9377307 349
-7.6065092 -1.4785556 -2.0285442 349
-9.1945667 -1.7872428 -2.2193635 349
-11.750637 -2.2840924 -2.5444233 349
-13.570763 -2.6378891 -2.6047196 349
-16.193319 -3.0978291 -2.7087095 349.17001
-19.913635 -3.8095362 -2.8494301 349.17001
-4.2243676 -0.80813378 -1.9149162 349.17001
-4.5079618 -0.86238617 -1.9170938 349.17001
-4.8124261 -0.92063117 -1.9132673 349.17001
-5.1464014 -0.98452157 -1.9071044 349.17001
-54.410393 -10.408867 1.2861565 349.17001
-5.5290565 -1.0577246 -1.9021351 349.17001
-5.9500256 -1.1382571 -1.8903131 349.17001
-6.6335325 -1.269014 -1.9366281 349.17001
-7.6013608 -1.4541625 -2.0260117 349.17001
-9.1940956 -1.7588571 -2.2179801 349.17001
-11.757362 -2.2492177 -2.5444233 349.17001
-13.563087 -2.5946579 -2.6017573 349.17001
-16.215483 -3.0551548 -2.7109792 349.32999
-19.902786 -3.7498784 -2.8463683 349.32999
-4.2266078 -0.79633397 -1.9149162 349.32999
-4.5085387 -0.8494525 -1.9163229 349.32999
-4.8131475 -0.90684378 -1.9125397 349.32999
-5.14359 -0.96910232 -1.9050522 349.32999
-5.5264025 -1.0412279 -1.9002144 349.32999
-5.936295 -1.1184556 -1.8849514 349.32999
-6.648386 -1.2526206 -1.9399357 349.32999
-7.6110964 -1.4340045 -2.0275311 349.32999
-9.1989708 -1.7331755 -2.2179801 349.32999
-11.759753 -2.2156518 -2.5435917 349.32999
-13.578005 -2.5582283 -2.6032383 349.32999
-16.230824 -3.0052752 -2.711952 349.51001
-19.920311 -3.6884153 -2.8472033 349.51001
-4.2326818 -0.7837171 -1.916543 349.51001
-4.5039263 -0.83394039 -1.9132395 349.51001
-4.8159728 -0.89171839 -1.9125397 349.51001
-5.1466088 -0.9529385 -1.9050522 349.51001
-5.5333724 -1.024551 -1.9014949 349.51001
-5.9266386 -1.0973676 -1.8807812 349.51001
-6.6503978 -1.2313778 -1.9393845 349.51001
-7.6098561 -1.4090297 -2.0260117 349.51001
-9.2062845 -1.7046219 -2.2184412 349.51001
-11.766655 -2.1786966 -2.5435917 349.51001
-13.584043 -2.5152011 -2.6028681 349.51001
-16.231901 -2.9556901 -2.710655 349.67999
-19.938961 -3.6307137 -2.8483167 349.67999
-4.2295957 -0.77017307 -1.9141027 349.67999
-4.5045652 -0.8202427 -1.9124687 349.67999
-4.8222632 -0.87809271 -1.9139947 349.67999
-54.468353 -9.9182196 0 349.67999
-5.1512628 -0.93800074 -1.9057362 349.67999
-5.53266 -1.0074499 -1.9002144 349.67999
-5.9223552 -1.07841 -1.8783982 349.67999
-6.6483479 -1.2106071 -1.9377307 349.67999
-7.6159067 -1.3867912 -2.0265181 349.67999
-9.1978989 -1.6748585 -2.2152133 349.67999
-11.765369 -2.1423728 -2.5419283 349.67999
-13.599179 -2.4762938 -2.6043494 349.67999
-16.23283 -2.9061248 -2.709358 349.85001
-19.967192 -3.5746789 -2.8508217 349.85001
-4.2336607 -0.75794226 -1.9149162 349.85001
-4.5051627 -0.8065486 -1.9116979 349.85001
-4.8211794 -0.86312431 -1.9125397 349.85001
-5.152173 -0.92238134 -1.9050522 349.85001
-5.5318947 -0.99036193 -1.898934 349.85001
-5.9236493 -1.0604968 -1.8778024 349.85001
-6.6481256 -1.1901982 -1.9366281 349.85001
-7.616179 -1.3635064 -2.0255051 349.85001
-9.2104902 -1.6489322 -2.2170579 349.85001
-11.785153 -2.109868 -2.5448391 349.85001
-13.602598 -2.4352407 -2.6036088 349.85001
-16.224386 -2.8520386 -2.70644 350.03
-19.972471 -3.5109038 -2.8499868 350.03
-4.2324219 -0.74400544 -1.9132892 350.03
-4.5076742 -0.79239124 -1.9116979 350.03
-4.8220325 -0.84765136 -1.9118123 350.03
-5.1568966 -0.90651613 -1.9057362 350.03
-5.5312462 -0.97232205 -1.8976535 350.03
-5.9325929 -1.0428736 -1.8795897 350.03
-6.6518321 -1.1693066 -1.9366281 350.03
-7.6185193 -1.3392378 -2.0249987 350.03
-9.2002916 -1.617293 -2.2133689 350.03
-11.795577 -2.0735109 -2.5456707 350.03
-13.604374 -2.3914742 -2.6024978 350.03
-16.254169 -2.8075824 -2.7100065 350.20001
-19.963284 -3.4482579 -2.8472033 350.20001
-4.23101 -0.73082232 -1.9116622 350.20001
-4.50455 -0.77807087 -1.9093853 350.20001
-4.8245263 -0.83334041 -1.9118123 350.20001
-5.1540074 -0.8902517 -1.9036841 350.20001
-5.5378408 -0.95655125 -1.898934 350.20001
-5.9224916 -1.0229919 -1.8754194 350.20001
-6.6571665 -1.1498923 -1.9371793 350.20001
-7.6281791 -1.3176154 -2.0265181 350.20001
-9.199296 -1.5889944 -2.2119856 350.20001
-11.801678 -2.0385036 -2.5456707 350.20001
-13.615283 -2.3517678 -2.6032383 350.20001
-17.411839 -2.9574971 -2.901633 350.35999
-19.980646 -3.3938231 -2.8483167 350.35999
-4.2330346 -0.71900427 -1.9116622 350.35999
-4.5176215 -0.76734298 -1.9140104 350.35999
-4.8305078 -0.82048845 -1.9132673 350.35999
-5.1583266 -0.87617028 -1.9043682 350.35999
-5.5386229 -0.94076568 -1.8982937 350.35999
-5.9196782 -1.0054901 -1.8736322 350.35999
-6.6489797 -1.1293659 -1.9338717 350.35999
-7.6261067 -1.2953364 -2.0249987 350.35999
-9.1806746 -1.5593883 -2.2064521 350.35999
-11.809253 -2.005867 -2.5460865 350.35999
-13.617922 -2.3130794 -2.6024978 350.35999
-16.271015 -2.7082396 -2.7100065 350.54999
-19.982021 -3.3259203 -2.846925 350.54999
-4.2371979 -0.70526308 -1.9124757 350.54999
-4.5146799 -0.75144881 -1.9116979 350.54999
-4.8332024 -0.80446541 -1.9132673 350.54999
-5.1667652 -0.85998553 -1.9064202 350.54999
-5.5417118 -0.92239374 -1.8982937 350.54999
-5.9192138 -0.98522729 -1.8724407 350.54999
-6.6432061 -1.1057327 -1.9311153 350.54999
-7.6284513 -1.2697225 -2.024492 350.54999
-9.1877146 -1.529255 -2.2069132 350.54999
-11.81584 -1.966695 -2.5460865 350.54999
-13.623579 -2.2675853 -2.6021276 350.54999
-16.275084 -2.6593142 -2.709358 350.72
-20.001575 -3.2682149 -2.8483167 350.72
-4.2356653 -0.69209868 -1.9108487 350.72
-4.5150685 -0.73775262 -1.9109269 350.72
-4.8282132 -0.78891981 -1.9103574 350.72
-5.1748586 -0.84556085 -1.9084724 350.72
-5.5444241 -0.90594715 -1.8982937 350.72
-5.9221106 -0.96766031 -1.8724407 350.72
-6.6521497 -1.0869471 -1.9327692 350.72
-7.6207285 -1.2452108 -2.0214531 350.72
-9.1883698 -1.5013602 -2.205991 350.72
-11.825484 -1.932259 -2.5469182 350.72
-13.630247 -2.2271533 -2.6021276 350.72
-16.282448 -2.6138554 -2.709358 350.88
-20.004757 -3.2114055 -2.8474817 350.88
-4.2411895 -0.68084699 -1.9124757 350.88
-4.5189333 -0.72543377 -1.9116979 350.88
-4.8414345 -0.77720559 -1.9147222 350.88
-5.1716328 -0.83021301 -1.9064202 350.88
-5.5450616 -0.89016032 -1.8976535 350.88
-5.9247899 -0.95111889 -1.8724407 350.88
-6.6475658 -1.0671476 -1.930564 350.88
-7.6299071 -1.2248449 -2.0229726 350.88
-9.1771545 -1.4732279 -2.202302 350.88
-11.830834 -1.8992286 -2.5469182 350.88
-13.628651 -2.1878359 -2.6006463 350.88
-16.281277 -2.5583146 -2.7077367 351.07001
-20.015297 -3.1450498 -2.8474817 351.07001
-4.2416191 -0.66649538 -1.9116622 351.07001
-4.5194907 -0.71015799 -1.9109269 351.07001
-4.8329425 -0.75941139 -1.9103574 351.07001
-5.1725006 -0.81276697 -1.9057362 351.07001
-5.5535984 -0.87264973 -1.8995742 351.07001
-5.9316835 -0.93205911 -1.8736322 351.07001
-6.6700606 -1.048082 -1.9360768 351.07001
-7.6320152 -1.1992362 -2.0224662 351.07001
-9.1877575 -1.4436935 -2.2036855 351.07001
-11.831269 -1.8590746 -2.5456707 351.07001
-13.643598 -2.1438498 -2.6021276 351.07001
-16.268854 -2.5098298 -2.7044945 351.23001
-20.022043 -3.0888424 -2.8472033 351.23001
-4.2434635 -0.65464795 -1.9116622 351.23001
-4.5214562 -0.69753444 -1.9109269 351.23001
-4.8350444 -0.74591231 -1.9103574 351.23001
-101.9025 -15.72071 0 351.23001
-5.1784649 -0.79889256 -1.9071044 351.23001
-61.499691 -9.4876852 1.4447327 351.23001
-5.5522685 -0.85655999 -1.8982937 351.23001
-5.9361501 -0.91578215 -1.8742279 351.23001
-6.6577611 -1.0271066 -1.9316666 351.23001
-7.6372466 -1.178214 -2.0229726 351.23001
-9.1898298 -1.4177341 -2.2032242 351.23001
-11.838348 -1.8263266 -2.5460865 351.23001
-13.641762 -2.1045427 -2.6006463 351.23001
-16.268852 -2.4575284 -2.7031975 351.41
-20.039482 -3.0271094 -2.8483167 351.41
-4.2473059 -0.64158642 -1.9124757 351.41
-4.5218005 -0.68305081 -1.9101561 351.41
-4.8336797 -0.73016238 -1.9089023 351.41
-5.1772327 -0.7820586 -1.9057362 351.41
-5.5586791 -0.83967882 -1.8995742 351.41
-5.9352221 -0.8965584 -1.8730364 351.41
-6.6590538 -1.0058985 -1.9311153 351.41
-7.6370845 -1.1536371 -2.0219595 351.41
-9.2038593 -1.3903098 -2.2055299 351.41
-11.847897 -1.7897108 -2.5469182 351.41
-13.654136 -2.0625563 -2.6017573 351.41
-16.270636 -2.4055402 -2.7022247 351.59
-20.039097 -2.9626904 -2.846925 351.59
-4.2511082 -0.6285072 -1.9132892 351.59
-4.5220985 -0.66857189 -1.9093853 351.59
-4.8396354 -0.7155183 -1.9103574 351.59
-5.1833825 -0.76633972 -1.9071044 351.59
-5.5594153 -0.82193452 -1.898934 351.59
-5.9436755 -0.87874568 -1.8748237 351.59
-6.6621809 -0.98497349 -1.9311153 351.59
-7.6387568 -1.1293558 -2.0214531 351.59
-9.2043314 -1.360819 -2.2046077 351.59
-11.851525 -1.7521946 -2.5465024 351.59
-13.652771 -2.0185008 -2.600276 351.59
-16.279654 -2.3575366 -2.702549 351.76001
-20.0478 -2.9032202 -2.846925 351.76001
-4.252954 -0.61589116 -1.9132892 351.76001
-4.5240622 -0.65515167 -1.9093853 351.76001
-61.515564 -8.90837 -1.443108 351.76001
-4.8435812 -0.70142269 -1.9110848 351.76001
-5.1763334 -0.74961019 -1.9036841 351.76001
-5.5712056 -0.80679357 -1.9021351 351.76001
-62.242382 -9.0136242 2.9328926 351.76001
-5.9462566 -0.86110657 -1.8748237 351.76001
-6.6726851 -0.96630424 -1.9333204 351.76001
-7.6420741 -1.1066862 -2.0214531 351.76001
-9.2141066 -1.33434 -2.205991 351.76001
-11.858607 -1.7173032 -2.5469182 351.76001
-13.660645 -1.9782649 -2.6006463 351.76001
-16.283817 -2.3146307 -2.7022247 351.91
-20.04945 -2.849889 -2.8460898 351.91
-4.249125 -0.60398346 -1.9108487 351.91
-4.5184536 -0.64226657 -1.9063019 351.91
-4.8454008 -0.68873984 -1.9110848 351.91
-61.953259 -8.8062229 0 351.91
-5.1838603 -0.73684949 -1.9057362 351.91
-5.5695467 -0.79167217 -1.9008547 351.91
-5.952271 -0.84607375 -1.8760152 351.91
-6.6713853 -0.94829077 -1.9322178 351.91
-7.6430297 -1.0864033 -2.0209465 351.91
-9.215642 -1.309939 -2.2055299 351.91
-11.863063 -1.6862515 -2.5469182 351.91
-13.669669 -1.9430479 -2.601387 351.91
-16.293358 -2.2608902 -2.702549 352.10001
-20.072521 -2.7852926 -2.8480384 352.10001
-4.2474852 -0.5893873 -1.9092218 352.10001
-4.5242143 -0.62778664 -1.9078436 352.10001
-34.539661 -4.7927742 -0.80959249 352.10001
-4.8495035 -0.67292422 -1.9118123 352.10001
-61.211502 -8.4937983 0 352.10001
-5.1825519 -0.7191385 -1.9043682 352.10001
-5.5758948 -0.77371937 -1.9021351 352.10001
-5.9588261 -0.82685548 -1.8772067 352.10001
-6.6763973 -0.92642671 -1.9327692 352.10001
-7.6370082 -1.0597224 -2.018414 352.10001
-9.2199354 -1.2793717 -2.2055299 352.10001
-11.868589 -1.6469029 -2.5469182 352.10001
-13.676037 -1.897707 -2.601387 352.10001
-16.299994 -2.2125371 -2.702549 352.26999
-20.07481 -2.7249248 -2.8472033 352.26999
-4.2492151 -0.57678217 -1.9092218 352.26999
-4.5260572 -0.61436027 -1.9078436 352.26999
-34.793468 -4.7228136 -0.81520951 352.26999
-4.8496327 -0.65828192 -1.9110848 352.26999
-62.693077 -8.5098648 0 352.26999
-5.1846628 -0.70375842 -1.9043682 352.26999
-61.764793 -8.3838615 1.4471467 352.26999
-5.5762887 -0.75691712 -1.9014949 352.26999
-5.9688206 -0.81019884 -1.8795897 352.26999
-6.6810217 -0.90687197 -1.9333204 352.26999
-7.6382017 -1.0367981 -2.0179076 352.26999
-9.2333326 -1.2533188 -2.2078354 352.26999
-11.875362 -1.611944 -2.547334 352.26999
-13.685503 -1.8576498 -2.6021276 352.26999
-16.308821 -2.1615775 -2.7028732 352.45001
-20.071491 -2.6602833 -2.8455331 352.45001
-4.2528176 -0.5636701 -1.9100353 352.45001
-4.5297947 -0.60038072 -1.9086144 352.45001
-35.05788 -4.646585 -0.82105863 352.45001
-4.8479829 -0.64255357 -1.9096298 352.45001
-60.717014 -8.0474567 0 352.45001
-5.1868482 -0.68746692 -1.9043682 352.45001
-5.5823956 -0.7398929 -1.9027754 352.45001
-5.9713364 -0.79144329 -1.8795897 352.45001
-6.6762142 -0.88486803 -1.9311153 352.45001
-7.645257 -1.0133053 -2.0189207 352.45001
-9.233366 -1.2237939 -2.2069132 352.45001
-11.87455 -1.5738574 -2.5460865 352.45001
-13.687374 -1.8141299 -2.601387 352.45001
-16.309292 -2.1124184 -2.7019005 352.62
-20.085188 -2.6014814 -2.8463683 352.62
-4.2580953 -0.55151868 -1.9116622 352.62
-4.5370464 -0.58764911 -1.9109269 352.62
-61.672085 -7.987916 -1.4438043 352.62
-4.8498683 -0.6281665 -1.9096298 352.62
-60.85368 -7.8819141 0 352.62
-5.1907291 -0.6723156 -1.9050522 352.62
-61.219986 -7.9293585 1.4332201 352.62
-5.5789289 -0.72259623 -1.9008547 352.62
-5.9774451 -0.77421296 -1.8807812 352.62
-6.7112226 -0.86925358 -1.940487 352.62
-7.6482301 -0.99061698 -2.0189207 352.62
-9.2543259 -1.1986424 -2.2110634 352.62
-11.883047 -1.5391207 -2.5469182 352.62
-13.694646 -1.7737632 -2.6017573 352.62
-16.309254 -2.0661218 -2.7009277 352.78
-20.092375 -2.545383 -2.8463683 352.78
-4.2559934 -0.53916639 -1.9100353 352.78
-4.5386696 -0.57497698 -1.9109269 352.78
-32.469666 -4.1133881 -0.759875 352.78
-4.8534517 -0.61485481 -1.9103574 352.78
-60.349655 -7.6453376 0 352.78
-5.1963153 -0.65829015 -1.9064202 352.78
-61.592987 -7.8028479 1.4414368 352.78
-5.5884442 -0.70796663 -1.9034156 352.78
-5.9852662 -0.75823766 -1.8825684 352.78
-6.6926436 -0.8478511 -1.934423 352.78
-7.6548052 -0.96974158 -2.0199335 352.78
-9.2634296 -1.1735286 -2.2124467 352.78
-11.885358 -1.5056851 -2.5465024 352.78
-13.711245 -1.7369958 -2.6039791 352.78
-16.315311 -2.0177224 -2.7009277 352.95001
-20.088045 -2.4842982 -2.8446982 352.95001
-4.259388 -0.52676052 -1.9108487 352.95001
-4.5403557 -0.56150794 -1.9109269 352.95001
-32.473793 -4.0160494 -0.75968933 352.95001
-4.8552547 -0.60045165 -1.9103574 352.95001
-32.53812 -4.0240045 0 352.95001
-5.1982455 -0.64286953 -1.9064202 352.95001
-61.20908 -7.569756 1.4319203 352.95001
-5.5886397 -0.69114971 -1.9027754 352.95001
-5.9931741 -0.74117869 -1.8843557 352.95001
-6.6855898 -0.82681012 -1.9316666 352.95001
-7.6672497 -0.94821244 -2.0224662 352.95001
-9.2823219 -1.1479492 -2.2161355 352.95001
-11.893657 -1.4708942 -2.547334 352.95001
-13.716338 -1.6963061 -2.6039791 352.95001
-16.309813 -1.96504 -2.6989822 353.13
-20.095751 -2.4211776 -2.8446982 353.13
-32.267284 -3.8876293 -2.272666 353.13
-4.2628355 -0.51359522 -1.9116622 353.13
-32.305016 -3.8921747 -1.5174085 353.13
-4.5512586 -0.54834503 -1.9147812 353.13
-32.452499 -3.9099443 -0.75890011 353.13
-4.8589668 -0.58541834 -1.9110848 353.13
-32.471176 -3.912194 0 353.13
-5.2002397 -0.62653559 -1.9064202 353.13
-61.313946 -7.3872309 1.4338236 353.13
-5.5926647 -0.67381579 -1.9034156 353.13
-6.0030551 -0.72326046 -1.8867387 353.13
-6.690063 -0.8060326 -1.9322178 353.13
-7.6701908 -0.92412043 -2.0224662 353.13
-9.2916784 -1.1194806 -2.217519 353.13
-11.894334 -1.433054 -2.5465024 353.13
-13.713795 -1.6522663 -2.6024978 353.13
-16.307732 -1.9157182 -2.6976855 353.29999
-20.098911 -2.3610795 -2.8441415 353.29999
-4.262526 -0.50073171 -1.9108487 353.29999
-32.328323 -3.7977054 -1.5179676 353.29999
-4.5437012 -0.53376222 -1.9109269 353.29999
-32.398426 -3.8059406 -0.75736821 353.29999
-4.860682 -0.57099891 -1.9110848 353.29999
-32.419075 -3.8083663 0 353.29999
-5.2039423 -0.6113227 -1.9071044 353.29999
-5.5965209 -0.65744013 -1.9040558 353.29999
-6.0108628 -0.70611411 -1.8885258 353.29999
-6.6886067 -0.78573066 -1.9311153 353.29999
-7.6767421 -0.90180993 -2.023479 353.29999
-9.2872286 -1.0909985 -2.2156744 353.29999
-11.908249 -1.3988976 -2.5485816 353.29999
-13.716684 -1.61134 -2.6021276 353.29999
-16.322821 -1.871295 -2.6993065 353.45999
-20.105427 -2.3049436 -2.8441415 353.45999
-4.2657232 -0.48903468 -1.9116622 353.45999
-4.548841 -0.52149212 -1.9124687 353.45999
-32.422836 -3.7170465 -0.75769317 353.45999
-4.8567052 -0.55678654 -1.9089023 353.45999
-32.439518 -3.7189593 0 353.45999
-5.2074962 -0.59700227 -1.9077884 353.45999
-5.6020999 -0.64224076 -1.9053363 353.45999
-6.0185018 -0.68997824 -1.8903131 353.45999
-6.6869545 -0.76661158 -1.9300128 353.45999
-7.6888418 -0.8814708 -2.0260117 353.45999
-9.305706 -1.0668328 -2.2193635 353.45999
-11.912108 -1.3656381 -2.5485816 353.45999
-13.717225 -1.5725819 -2.601387 353.45999
-16.326975 -1.8169379 -2.6989822 353.64999
-20.118864 -2.2389162 -2.8449764 353.64999
-4.2709532 -0.47529051 -1.9132892 353.64999
-4.5468769 -0.50599653 -1.9109269 353.64999
-32.407162 -3.6064119 -0.75704324 353.64999
-4.8548217 -0.54026598 -1.9074473 353.64999
-61.067028 -6.7958088 0 353.64999
-5.2131829 -0.58014601 -1.9091564 353.64999
-62.097828 -6.9105206 1.4506283 353.64999
-5.6023159 -0.62345046 -1.9046961 353.64999
-6.0245514 -0.67043871 -1.8915046 353.64999
-6.6837277 -0.74379474 -1.9283589 353.64999
-7.6936455 -0.85618281 -2.0265181 353.64999
-9.3072586 -1.0357528 -2.2189023 353.64999
-11.918516 -1.3263451 -2.5489974 353.64999
-13.732132 -1.5281723 -2.6032383 353.64999
-16.326408 -1.7678496 -2.6980097 353.82001
-20.117544 -2.1783595 -2.8438632 353.82001
-4.2650785 -0.46182948 -1.9100353 353.82001
-4.5446887 -0.49210614 -1.9093853 353.82001
-68.964188 -7.4675517 -1.6105042 353.82001
-4.8601074 -0.5262602 -1.9089023 353.82001
-5.2130127 -0.56447333 -1.9084724 353.82001
-5.6041408 -0.60682529 -1.9046961 353.82001
-6.0284123 -0.65276611 -1.8921003 353.82001
-6.6820827 -0.72354656 -1.9272563 353.82001
-7.6942282 -0.83314329 -2.0260117 353.82001
-9.3083563 -1.0079236 -2.2184412 353.82001
-11.922399 -1.2909763 -2.5489974 353.82001
-13.728789 -1.4865751 -2.6017573 353.82001
-16.333544 -1.719607 -2.6983337 353.98999
-20.116039 -2.1178308 -2.8427498 353.98999
-4.2664299 -0.44917274 -1.9100353 353.98999
-4.5497994 -0.47900608 -1.9109269 353.98999
-4.8653531 -0.51222777 -1.9103574 353.98999
-5.2165337 -0.5492003 -1.9091564 353.98999
-5.6096854 -0.59059161 -1.9059765 353.98999
-6.0417151 -0.63607597 -1.8956748 353.98999
-6.7052317 -0.70593148 -1.9333204 353.98999
-7.7024388 -0.81091815 -2.0275311 353.98999
-9.2996931 -0.97907817 -2.2156744 353.98999
-11.928123 -1.2558011 -2.5494132 353.98999
-13.739003 -1.4464519 -2.6028681 353.98999
-16.331013 -1.6674834 -2.697037 354.17001
-20.134415 -2.055831 -2.84442 354.17001
-4.2660027 -0.43558156 -1.9092218 354.17001
-4.5476098 -0.4643352 -1.9093853 354.17001
-4.8650851 -0.4967511 -1.9096298 354.17001
-62.489105 -6.3804703 0 354.17001
-5.2201033 -0.53300035 -1.9098405 354.17001
-68.622627 -7.0067358 1.6014984 354.17001
-5.6115131 -0.57296538 -1.9059765 354.17001
-6.0398846 -0.6167044 -1.8944833 354.17001
-6.7035909 -0.68447232 -1.9322178 354.17001
-7.7030239 -0.78651977 -2.0270245 354.17001
-9.3027229 -0.94985759 -2.2156744 354.17001
-11.92617 -1.2177255 -2.5481658 354.17001
-13.749346 -1.4038814 -2.6039791 354.17001
-16.331678 -1.6214823 -2.6963885 354.32999
-20.112486 -1.9968578 -2.840523 354.32999
-4.2708383 -0.42402798 -1.9108487 354.32999
-4.5525618 -0.45199874 -1.9109269 354.32999
-4.8701611 -0.48353142 -1.9110848 354.32999
-5.2178307 -0.5180496 -1.9084724 354.32999
-70.233665 -6.9731135 1.6386356 354.32999
-5.6149769 -0.55748004 -1.9066168 354.32999
-6.0548825 -0.60115588 -1.8986536 354.32999
-6.6997371 -0.66517991 -1.930564 354.32999
-7.7186675 -0.76634389 -2.03057 354.32999
-9.3130856 -0.92464489 -2.217519 354.32999
-11.921737 -1.1836435 -2.5465024 354.32999
-13.747345 -1.364898 -2.6028681 354.32999
-17.579918 -1.6927536 -2.901633 354.5
-20.134094 -1.9386927 -2.8427498 354.5
-4.2738967 -0.41152942 -1.9116622 354.5
-4.550209 -0.4381353 -1.9093853 354.5
-4.8678656 -0.46872213 -1.9096298 354.5
-70.265015 -6.7657518 0 354.5
-5.2230864 -0.50292599 -1.9098405 354.5
-5.6184921 -0.54099929 -1.907257 354.5
-6.0585399 -0.58337104 -1.8992493 354.5
-6.69594 -0.64474571 -1.9289103 354.5
-7.726685 -0.74399513 -2.0320897 354.5
-9.3177252 -0.89719492 -2.2179801 354.5
-11.927144 -1.1484534 -2.5469182 354.5
-13.749378 -1.3239145 -2.6024978 354.5
-16.337349 -1.521322 -2.69574 354.67999
-20.153889 -1.8767155 -2.8446982 354.67999
-4.2788067 -0.39843938 -1.9132892 354.67999
-4.5552378 -0.42418048 -1.9109269 354.67999
-4.8711691 -0.45359972 -1.9103574 354.67999
-68.463806 -6.3753004 0 354.67999
-5.226512 -0.486689 -1.9105245 354.67999
-5.625824 -0.52387267 -1.9091777 354.67999
-6.0660458 -0.56486577 -1.9010366 354.67999
-6.6960182 -0.62352836 -1.9283589 354.67999
-7.7289839 -0.71971738 -2.0320897 354.67999
-9.3243732 -0.86827892 -2.2189023 354.67999
-11.932641 -1.1111588 -2.547334 354.67999
-13.757383 -1.2810775 -2.6032383 354.67999
-16.329996 -1.4717786 -2.6937945 354.85001
-20.133726 -1.8145984 -2.8410797 354.85001
-4.2726912 -0.38508615 -1.9100353 354.85001
-4.5528007 -0.41033164 -1.9093853 354.85001
-4.8724933 -0.4391447 -1.9103574 354.85001
-5.2279329 -0.47117952 -1.9105245 354.85001
-5.617918 -0.50632781 -1.9059765 354.85001
-6.0676951 -0.54686499 -1.9010366 354.85001
-6.6978388 -0.6036582 -1.9283589 354.85001
-7.7291584 -0.69660825 -2.0315831 354.85001
-9.3366003 -0.84148258 -2.2212079 354.85001
-11.93004 -1.0752224 -2.5460865 354.85001
-13.766996 -1.2407823 -2.6043494 354.85001
-16.340439 -1.4209821 -2.6947672 355.03
-20.13538 -1.7509944 -2.840523 355.03
-4.2757001 -0.3718195 -1.9108487 355.03
-4.5540671 -0.39602658 -1.9093853 355.03
-4.8738489 -0.42383516 -1.9103574 355.03
-75.228088 -6.5419159 0 355.03
-5.2293873 -0.45475316 -1.9105245 355.03
-5.6213684 -0.48884028 -1.9066168 355.03
-6.0712852 -0.52796549 -1.9016324 355.03
-6.7016177 -0.58277988 -1.9289103 355.03
-7.7448015 -0.67349631 -2.0351286 355.03
-9.341136 -0.81231529 -2.221669 355.03
-11.933359 -1.0377378 -2.5460865 355.03
-13.778658 -1.198207 -2.6058307 355.03
-16.348516 -1.3728232 -2.6954157 355.20001
-20.14246 -1.6914097 -2.8408012 355.20001
-4.2767844 -0.35913163 -1.9108487 355.20001
-4.5533829 -0.38235825 -1.9086144 355.20001
-4.8806543 -0.40983999 -1.9125397 355.20001
-5.2325864 -0.43939257 -1.9112085 355.20001
-5.6265702 -0.4724763 -1.9078972 355.20001
-6.08424 -0.51090789 -1.9052069 355.20001
-6.7014012 -0.5627324 -1.9283589 355.20001
-7.7506218 -0.6508379 -2.0361416 355.20001
-9.3493233 -0.78508461 -2.2230525 355.20001
-11.928588 -1.0016716 -2.5444233 355.20001
-13.768443 -1.1561685 -2.6032383 355.20001
-16.372189 -1.3259033 -2.698658 355.37
-20.127649 -1.6300397 -2.8380179 355.37
-4.274189 -0.34614563 -1.9092218 355.37
-4.5563369 -0.3689954 -1.9093853 355.37
-4.8744211 -0.39475548 -1.9096298 355.37
-5.2357402 -0.42401695 -1.9118927 355.37
-5.6355019 -0.45639166 -1.9104582 355.37
-6.081923 -0.49254516 -1.9040154 355.37
-6.7068739 -0.54315686 -1.9294615 355.37
-7.7525187 -0.62783849 -2.0361416 355.37
-9.3593702 -0.75796956 -2.2248969 355.37
-11.933457 -0.96643221 -2.5448391 355.37
-13.785526 -1.1164222 -2.6058307 355.37
-16.372337 -1.2741559 -2.6980097 355.54999
-20.132671 -1.5667989 -2.8380179 355.54999
-4.2752552 -0.33271617 -1.9092218 355.54999
-4.5611534 -0.35496584 -1.9109269 355.54999
-4.8830667 -0.38001832 -1.9125397 355.54999
-5.2370467 -0.40756631 -1.9118927 355.54999
-5.640686 -0.43897903 -1.9117386 355.54999
-6.0967646 -0.47447276 -1.9081856 355.54999
-6.7027969 -0.52163643 -1.9278077 355.54999
-7.7640977 -0.60423076 -2.0386741 355.54999
-9.3461838 -0.72735453 -2.2212079 355.54999
-11.932533 -0.92863387 -2.5440075 355.54999
-13.775249 -1.0720408 -2.6032383 355.54999
-16.374079 -1.2254254 -2.6976855 355.72
-20.135256 -1.5069095 -2.8377395 355.72
-4.2762237 -0.3200298 -1.9092218 355.72
-4.5658674 -0.34170654 -1.9124687 355.72
-4.8823152 -0.36538929 -1.9118123 355.72
-5.2382326 -0.39202592 -1.9118927 355.72
-5.6457424 -0.42252368 -1.9130192 355.72
-6.0905299 -0.45581129 -1.9058026 355.72
-6.7023983 -0.50160313 -1.9272563 355.72
-7.7658563 -0.5811916 -2.0386741 355.72
-9.3638258 -0.70078266 -2.2248969 355.72
-11.931334 -0.89293331 -2.5431757 355.72
-13.790129 -1.0320442 -2.6054602 355.72
-20.145565 -1.4475863 -2.8385746 355.89001
-4.2771544 -0.30734059 -1.9092218 355.89001
-4.5687017 -0.3282901 -1.9132395 355.89001
-4.8833776 -0.35090157 -1.9118123 355.89001
-5.2393727 -0.37648207 -1.9118927 355.89001
-5.6450815 -0.40563479 -1.9123789 355.89001
-6.101377 -0.43842253 -1.9087814 355.89001
-6.7019396 -0.48157671 -1.9267051 355.89001
-7.7810555 -0.55911803 -2.0422196 355.89001
-9.3852749 -0.67439139 -2.2295082 355.89001
-11.941737 -0.85808927 -2.5448391 355.89001
-13.789209 -0.99084187 -2.6047196 355.89001
-16.384998 -1.1285098 -2.6983337 356.06
-20.137917 -1.3869903 -2.8369045 356.06
-4.281693 -0.29489976 -1.9108487 356.06
-4.5567679 -0.31384543 -1.9078436 356.06
-4.8843975 -0.33641076 -1.9118123 356.06
-5.242342 -0.36106405 -1.9125767 356.06
-5.6481504 -0.38901392 -1.9130192 356.06
-6.1121745 -0.42097339 -1.9117601 356.06
-6.7052569 -0.46182168 -1.9272563 356.06
-7.78268 -0.53602874 -2.0422196 356.06
-9.3891764 -0.64667547 -2.2299693 356.06
-11.940327 -0.82238489 -2.5440075 356.06
-13.790128 -0.94978911 -2.6043494 356.06
-16.386307 -1.0797598 -2.6980097 356.23001
-20.136015 -1.3268433 -2.8360693 356.23001
-4.2734337 -0.28159377 -1.9067814 356.23001
-4.5595207 -0.3004452 -1.9086144 356.23001
-4.8853741 -0.32191703 -1.9118123 356.23001
-5.2433901 -0.34550813 -1.9125767 356.23001
-5.6530609 -0.37250301 -1.9142996 356.23001
-6.1229219 -0.40346405 -1.9147389 356.23001
-6.6989241 -0.44141915 -1.9250513 356.23001
-7.7861667 -0.51306194 -2.0427263 356.23001
-9.3929958 -0.61894238 -2.2304304 356.23001
-11.942715 -0.78695363 -2.5440075 356.23001
-13.787002 -0.90848118 -2.6032383 356.23001
-16.389618 -1.0282755 -2.6980097 356.41
-20.132177 -1.2630817 -2.8349562 356.41
-4.2779441 -0.26839584 -1.9084083 356.41
-4.5549164 -0.28577292 -1.9063019 356.41
-4.8845019 -0.30645093 -1.9110848 356.41
-5.2482009 -0.32926923 -1.9139447 356.41
-5.6542034 -0.35474157 -1.9142996 356.41
-6.1260648 -0.38434592 -1.9153346 356.41
-6.6945214 -0.42001057 -1.9233974 356.41
-7.7877402 -0.4885985 -2.0427263 356.41
-9.4026632 -0.58991784 -2.2322748 356.41
-11.935366 -0.74881822 -2.5419283 356.41
-16.402447 -0.98023075 -2.6996307 356.57999
-6.7297382 -0.4021776 -0.94749045 356.57999
-6.7399635 -0.40278867 -0.78959244 356.57999
-4.2805452 -0.25581077 -1.9092218 356.57999
-6.7067327 -0.40080273 -0.31332013 356.57999
-4.5575862 -0.27236706 -1.9070728 356.57999
-4.8872495 -0.29206815 -1.9118123 356.57999
-5.2529068 -0.31392029 -1.9153128 356.57999
-5.6590137 -0.33818975 -1.91558 356.57999
-6.1443305 -0.36719289 -1.9206964 356.57999
-6.6765471 -0.39899883 -1.9178847 356.57999
-6.6805577 -0.3992385 -1.7519935 356.57999
-6.6846609 -0.39948371 -1.5867088 356.57999
-4.2758555 -0.24205199 -1.9067814 356.76001
-4.5584197 -0.25804767 -1.9070728 356.76001
-4.8955827 -0.27713415 -1.9147222 356.76001
-5.2482381 -0.29709762 -1.9132607 356.76001
-5.6543732 -0.32008854 -1.9136593 356.76001
-6.1378293 -0.34745651 -1.9183134 356.76001
-6.6816068 -0.37823921 -1.9189873 356.76001
-6.6875739 -0.37857702 -1.753513 356.76001
-6.6975408 -0.37914124 -1.5894755 356.76001
-6.7032733 -0.37946573 -1.4271059 356.76001
-6.7090287 -0.37979156 -1.26607 356.76001
-6.7082324 -0.36095646 -1.1037165 356.92001
-6.7201405 -0.36159718 -0.94582039 356.92001
-4.2801638 -0.23030697 -1.9084083 356.92001
-4.562808 -0.24551548 -1.9086144 356.92001
-4.8944774 -0.26336196 -1.9139947 356.92001
-5.2528005 -0.2826426 -1.9146287 356.92001
-5.6665969 -0.30490816 -1.9175007 356.92001
-6.1559339 -0.33123836 -1.9236751 356.92001
-6.7536674 -0.3634012 -1.9393845 356.92001
-6.6867256 -0.35979921 -1.4233634 356.92001
-6.7748284 -0.36453983 -1.27829 356.92001
-6.6365743 -0.33735561 -0.61996078 357.09
-4.2826529 -0.21769921 -1.9092218 357.09
-4.5579872 -0.23169523 -1.9063019 357.09
-80.759933 -4.1052532 -1.8774283 357.09
-4.8933768 -0.24874403 -1.9132673 357.09
-5.2536159 -0.26705599 -1.9146287 357.09
-5.6712613 -0.28828609 -1.9187813 357.09
-6.1511693 -0.31268114 -1.9218879 357.09
-6.7873569 -0.34502032 -1.9487561 357.09
-11.941458 -0.6070177 -2.5415125 357.09
-13.797121 -0.70134628 -2.6028681 357.09
-16.403204 -0.7821635 -2.6980097 357.26999
-20.12315 -0.95954376 -2.8313375 357.26999
-6.7641673 -0.32253972 -0.79191548 357.26999
-6.7629142 -0.32247993 -0.63166517 357.26999
-6.787694 -0.32366154 -0.4751811 357.26999
-4.2814908 -0.2041568 -1.9084083 357.26999
-4.5715961 -0.21799007 -1.9116979 357.26999
-4.8885512 -0.23310362 -1.9110848 357.26999
-100.58771 -4.796382 0 357.26999
-5.2638154 -0.25099754 -1.918049 357.26999
-5.6740317 -0.27055815 -1.9194214 357.26999
-6.159749 -0.2937189 -1.9242709 357.26999
-6.8037696 -0.32442811 -1.9531662 357.26999
-7.8096571 -0.37239242 -2.0467782 357.26999
-9.4396162 -0.4501147 -2.2391915 357.26999
-11.939398 -0.56931323 -2.5406809 357.26999
-13.803183 -0.65818518 -2.6036088 357.26999
-16.383638 -0.73538071 -2.694443 357.42999
-20.129707 -0.90352327 -2.8318942 357.42999
-6.8583117 -0.30783579 -0.80283362 357.42999
-6.8732023 -0.30850416 -0.64188325 357.42999
-6.9041724 -0.30989426 -0.48327285 357.42999
-4.2802186 -0.19211791 -1.9075948 357.42999
-6.9095268 -0.31013456 -0.32254365 357.42999
-4.5611253 -0.20472643 -1.9070728 357.42999
-4.8966279 -0.21978547 -1.9139947 357.42999
-5.2569857 -0.23596017 -1.9153128 357.42999
-5.6728721 -0.25462726 -1.9187813 357.42999
-6.16436 -0.27668771 -1.9254624 357.42999
-6.8142524 -0.30585817 -1.9559227 357.42999
-7.8222637 -0.35110286 -2.0498173 357.42999
-9.4466696 -0.42401439 -2.2405748 357.42999
-11.935079 -0.53570682 -2.5394335 357.42999
-13.799077 -0.61937249 -2.6024978 357.42999
-16.395845 -0.68145633 -2.6960642 357.62
-20.116762 -0.83610785 -2.8296676 357.62
-6.9915762 -0.29058909 -0.65284455 357.62
-7.0227733 -0.29188573 -0.4915041 357.62
-4.2826576 -0.177999 -1.9084083 357.62
-6.9903612 -0.29053861 -0.32627031 357.62
-4.5709987 -0.18998325 -1.9109269 357.62
-4.8973298 -0.20354645 -1.9139947 357.62
-5.2614951 -0.21868217 -1.9166809 357.62
-5.6717925 -0.23573525 -1.918141 357.62
-6.1652436 -0.25624445 -1.9254624 357.62
-6.8248334 -0.2836588 -1.9586791 357.62
-7.8214521 -0.32508102 -2.0493107 357.62
-9.4441347 -0.39252415 -2.2396526 357.62
-11.934834 -0.49604446 -2.5390177 357.62
-13.795163 -0.57336485 -2.601387 357.62
-16.401739 -0.63295817 -2.6967127 357.79001
-20.123114 -0.77656937 -2.8302243 357.79001
-4.2813416 -0.16522089 -1.9075948 357.79001
-4.5567894 -0.17585067 -1.9047602 357.79001
-4.9016352 -0.18915859 -1.9154496 357.79001
-5.2621207 -0.20307006 -1.9166809 357.79001
-5.6819334 -0.21927102 -1.9213421 357.79001
-45.790115 -1.7670826 2.1369681 357.79001
-6.1678848 -0.23802432 -1.9260581 357.79001
-6.8371716 -0.26385272 -1.9619867 357.79001
-7.8243155 -0.3019475 -2.0498173 357.79001
-9.4569254 -0.36495143 -2.2424195 357.79001
-11.928434 -0.4603292 -2.5373542 357.79001
-13.79484 -0.53235555 -2.6010165 357.79001
-16.403545 -0.5842905 -2.6967127 357.95999
-20.123348 -0.71678907 -2.8299458 357.95999
-4.2818127 -0.15251718 -1.9075948 357.95999
-4.5646682 -0.16259243 -1.9078436 357.95999
-4.9058986 -0.17474698 -1.9169046 357.95999
-5.2664561 -0.18758996 -1.918049 357.95999
-5.678772 -0.20227656 -1.9200617 357.95999
-45.879013 -1.6341999 2.1408811 357.95999
-6.1666555 -0.21965486 -1.9254624 357.95999
-6.8475308 -0.24390747 -1.964743 357.95999
-7.8348446 -0.27907535 -2.0523498 357.95999
-9.4793606 -0.33765262 -2.2474916 357.95999
-11.929748 -0.42493486 -2.5373542 357.95999
-13.792431 -0.49128321 -2.600276 357.95999
-16.411125 -0.53581089 -2.6976855 358.13
-20.123407 -0.65701419 -2.8296676 358.13
-4.2822466 -0.13981214 -1.9075948 358.13
-4.5632863 -0.14898787 -1.9070728 358.13
-4.9026713 -0.16006854 -1.9154496 358.13
-5.272625 -0.17214724 -1.920101 358.13
-5.681241 -0.18548825 -1.920702 358.13
-45.973515 -1.5010008 2.1450737 358.13
-6.1749129 -0.20160629 -1.9278454 358.13
-6.8539886 -0.22377759 -1.9663969 358.13
-7.8511086 -0.25633281 -2.0564017 358.13
-9.4822655 -0.30958888 -2.2479527 358.13
-11.927046 -0.3894091 -2.5365226 358.13
-13.78597 -0.45010158 -2.5987947 358.13
-16.4147 -0.48430949 -2.6980097 358.31
-20.111515 -0.59338266 -2.827719 358.31
-4.2863173 -0.12646617 -1.9092218 358.31
-45.830227 -1.3522035 -2.1381793 358.31
-4.5618868 -0.13459675 -1.9063019 358.31
-45.931629 -1.3551953 -1.0668609 358.31
-4.9031501 -0.14466558 -1.9154496 358.31
-45.965996 -1.3562094 0 358.31
-5.2675037 -0.15541571 -1.918049 358.31
-45.993584 -1.3570234 1.0683 358.31
-5.6855836 -0.16775098 -1.9219824 358.31
-46.055885 -1.3588614 2.1487072 358.31
-6.181241 -0.18237518 -1.9296325 358.31
-6.8623447 -0.20247088 -1.9686019 358.31
-7.859611 -0.23189485 -2.0584278 358.31
-9.4870825 -0.27991277 -2.2488751 358.31
-11.922343 -0.35176423 -2.5352752 358.31
-13.791245 -0.40690547 -2.5995355 358.31
-16.419933 -0.43857455 -2.698658 358.47
-20.107153 -0.53705978 -2.826884 358.47
-4.2903066 -0.1145936 -1.9108487 358.47
-4.5640898 -0.12190633 -1.9070728 358.47
-4.9072595 -0.13107234 -1.9169046 358.47
-5.2697964 -0.14075565 -1.918733 358.47
-5.6898179 -0.15197439 -1.9232628 358.47
-46.133392 -1.2322177 2.1521542 358.47
-6.1855435 -0.16521516 -1.930824 358.47
-6.8724928 -0.1835635 -1.9713584 358.47
-7.8602281 -0.2099458 -2.0584278 358.47
-9.4897718 -0.25347075 -2.2493362 358.47
-11.92328 -0.31846943 -2.5352752 358.47
-13.792328 -0.36839151 -2.5995355 358.47
-16.391636 -0.38629028 -2.6937945 358.64999
-20.122602 -0.47421539 -2.8288324 358.64999
-4.2851653 -0.10098552 -1.9084083 358.64999
-4.5644503 -0.10756724 -1.9070728 358.64999
-4.9095097 -0.11569901 -1.9176321 358.64999
-5.285243 -0.12455366 -1.9242053 358.64999
-5.6921616 -0.13414322 -1.9239031 358.64999
-46.159004 -1.0877973 2.1531792 358.64999
-6.1955752 -0.14600682 -1.9338028 358.64999
-6.8749576 -0.16201735 -1.9719096 358.64999
-7.8685856 -0.18543349 -2.0604539 358.64999
-9.4905214 -0.22365654 -2.2493362 358.64999
-11.916398 -0.2808255 -2.5336118 358.64999
-13.787522 -0.32492098 -2.5984244 358.64999
-16.412441 -0.33806011 -2.697037 358.82001
-20.12986 -0.4146308 -2.8296676 358.82001
-4.2872729 -0.088308379 -1.9092218 358.82001
-4.5776649 -0.094289817 -1.9124687 358.82001
-4.9135566 -0.10120844 -1.9190871 358.82001
-5.2761946 -0.10867799 -1.9207851 358.82001
-5.7039003 -0.11748779 -1.9277445 358.82001
-6.1940722 -0.12758425 -1.933207 358.82001
-6.8888626 -0.1418954 -1.9757686 358.82001
-7.869101 -0.16208616 -2.0604539 358.82001
-9.5047636 -0.19577719 -2.252564 358.82001
-11.915223 -0.24542736 -2.533196 358.82001
-13.786461 -0.28397071 -2.5980542 358.82001
-16.373907 -0.28866628 -2.690552 358.98999
-20.136944 -0.35500729 -2.8305025 358.98999
-4.2838626 -0.075523004 -1.9075948 358.98999
-4.5576277 -0.080349386 -1.9039893 358.98999
-4.91011 -0.086563528 -1.9176321 358.98999
-5.276494 -0.093022749 -1.9207851 358.98999
-5.7042241 -0.10056348 -1.9277445 358.98999
-6.1963325 -0.10923918 -1.9338028 358.98999
-6.8930979 -0.12152291 -1.9768711 358.98999
-7.8734164 -0.13880558 -2.0614667 358.98999
-9.5014105 -0.16750656 -2.2516418 358.98999
-11.915898 -0.21007314 -2.533196 358.98999
-13.783313 -0.24299499 -2.5973136 358.98999
-20.123993 -0.29856735 -2.8285542 359.14999
-4.2840567 -0.063559927 -1.9075948 359.14999
-4.5633698 -0.067703925 -1.9063019 359.14999
-4.9121952 -0.072879232 -1.9183595 359.14999
-5.2823706 -0.078371294 -1.9228373 359.14999
-5.6969047 -0.08452148 -1.9251835 359.14999
-6.2042494 -0.092048645 -1.9361858 359.14999
-6.9010997 -0.10238738 -1.9790763 359.14999
-7.871839 -0.11678965 -2.0609603 359.14999
-9.5018415 -0.140973 -2.2516418 359.14999
-11.914483 -0.17676789 -2.5327802 359.14999
-12.147787 -0.18022928 1.9960278 359.14999
-13.783937 -0.20450383 -2.5973136 359.14999
-20.128834 -0.23187777 -2.8291109 359.34
-4.2787628 -0.04928999 -1.9051545 359.34
-4.5635695 -0.052570872 -1.9063019 359.34
-4.9124098 -0.056589402 -1.9183595 359.34
-5.2826014 -0.060853891 -1.9228373 359.34
-5.7009425 -0.065673053 -1.9264641 359.34
-6.210248 -0.071540087 -1.9379731 359.34
-6.9090905 -0.079590529 -1.9812813 359.34
-7.8760524 -0.090729624 -2.0619733 359.34
-9.5100403 -0.10955265 -2.2534862 359.34
-11.909135 -0.13718946 -2.5315328 359.34
-13.772748 -0.15865768 -2.5950918 359.34
-16.401482 -0.14313357 -2.6947672 359.5
-20.119501 -0.17558022 -2.827719 359.5
-4.2843652 -0.037389088 -1.9075948 359.5
-4.567389 -0.039859001 -1.9078436 359.5
-49.382812 -0.43095726 -1.1465669 359.5
-4.9106855 -0.042854905 -1.9176321 359.5
-5.2883887 -0.046151068 -1.9248893 359.5
-5.7048931 -0.049785849 -1.9277445 359.5
-6.21806 -0.054264188 -1.9403561 359.5
-6.9131308 -0.060329977 -1.9823838 359.5
-7.8898177 -0.068853401 -2.0655189 359.5
-9.5180941 -0.083063148 -2.2553308 359.5
-11.907516 -0.10391531 -2.531117 359.5
-13.761345 -0.12009344 -2.59287 359.5
-16.366327 -0.091407768 -2.6889307 359.67999
-20.10807 -0.11230581 -2.8260491 359.67999
-4.2826343 -0.02391899 -1.9067814 359.67999
-4.5711827 -0.025530566 -1.9093853 359.67999
-4.9107962 -0.027427346 -1.9176321 359.67999
-5.2903872 -0.029547403 -1.9255733 359.67999
-5.7088108 -0.031884346 -1.9290249 359.67999
-6.2181997 -0.034729339 -1.9403561 359.67999
-6.9228988 -0.038665164 -1.9851402 359.67999
-7.8977342 -0.044109728 -2.0675449 359.67999
-9.5085773 -0.053106464 -2.2530251 359.67999
-11.905827 -0.066495374 -2.5307012 359.67999
-13.769516 -0.076904282 -2.5943511 359.67999
-16.394163 -0.040058579 -2.6934702 359.85999
-20.098421 -0.049109805 -2.8246572 359.85999
-4.2808614 -0.010460138 -1.905968 359.85999
-4.5638585 -0.011151632 -1.9063019 359.85999
-4.9127212 -0.012004066 -1.9183595 359.85999
-5.2923331 -0.012931635 -1.9262575 359.85999
-5.7164621 -0.01396798 -1.9315859 359.85999
-6.2278242 -0.015217476 -1.9433348 359.85999
-6.9249086 -0.016920777 -1.9856915 359.85999
-7.8997688 -0.019302815 -2.0680513 359.85999
-9.5125895 -0.023243686 -2.2539473 359.85999
-11.90402 -0.029087069 -2.5302854 359.85999
-13.761828 -0.033626556 -2.59287 359.85999
0 0 0 0
0 0 0 0
0 0 0 0
0 0 0 0
0 0 0 0
0 0 0 0
0 0 0 0
0 0 0 0
0 0 0 0
0 0 0 0
0 0 0 0
0 0 0 0
0 0 0 0
0 0 0 0
0 0 0 0
0 0 0 0
0 0 0 0
0 0 0 0
0 0 0 0
0 0 0 0
0 0 0 0
0 0 0 0
0 0 0 0
0 0 0 0
0 0 0 0
0 0 0 0
0 0 0 0
0 0 0 0
0 0 0 0
0 0 0 0
0 0 0 0
0 0 0 0
0 0 0 0
0 0 0 0
0 0 0 0
0 0 0 0
0 0 0 0
0 0 0 0
0 0 0 0
0 0 0 0
0 0 0 0
0 0 0 0
0 0 0 0
0 0 0 0
0 0 0 0
0 0 0 0
0 0 0 0
0 0 0 0
0 0 0 0
0 0 0 0
0 0 0 0
0 0 0 0
0 0 0 0
0 0 0 0
0 0 0 0
0 0 0 0
0 0 0 0
0 0 0 0
0 0 0 0
0 0 0 0
0 0 0 0
0 0 0 0
0 0 0 0
0 0 0 0
0 0 0 0
0 0 0 0
0 0 0 0
0 0 0 0
0 0 0 0
0 0 0 0
0 0 0 0
0 0 0 0
0 0 0 0
0 0 0 0
0 0 0 0
0 0 0 0
0 0 0 0
0 0 0 0
0 0 0 0
0 0 0 0
0 0 0 0
0 0 0 0
0 0 0 0
0 0 0 0
0 0 0 0
0 0 0 0
0 0 0 0
0 0 0 0
0 0 0 0
0 0 0 0
0 0 0 0
0 0 0 0
0 0 0 0
0 0 0 0
0 0 0 0
0 0 0 0
0 0 0 0
0 0 0 0
0 0 0 0
0 0 0 0
0 0 0 0
0 0 0 0
0 0 0 0
0 0 0 0
0 0 0 0
0 0 0 0
0 0 0 0
0 0 0 0
0 0 0 0
0 0 0 0
0 0 0 0
0 0 0 0
0 0 0 0
0 0 0 0
0 0 0 0
0 0 0 0
0 0 0 0
0 0 0 0
0 0 0 0
0 0 0 0
0 0 0 0
0 0 0 0
0 0 0 0
0 0 0 0
0 0 0 0
0 0 0 0
0 0 0 0
0 0 0 0
0 0 0 0
0 0 0 0
0 0 0 0
0 0 0 0
0 0 0 0
0 0 0 0
0 0 0 0
0 0 0 0
0 0 0 0
0 0 0 0
0 0 0 0
0 0 0 0
0 0 0 0
0 0 0 0
0 0 0 0
0 0 0 0
0 0 0 0
0 0 0 0
0 0 0 0
0 0 0 0
0 0 0 0
0 0 0 0
0 0 0 0
0 0 0 0
0 0 0 0
0 0 0 0
0 0 0 0
0 0 0 0
0 0 0 0
0 0 0 0
0 0 0 0
0 0 0 0
0 0 0 0
0 0 0 0
0 0 0 0
0 0 0 0
0 0 0 0
0 0 0 0
0 0 0 0
0 0 0 0
0 0 0 0
0 0 0 0
0 0 0 0
0 0 0 0
0 0 0 0
0 0 0 0
0 0 0 0
0 0 0 0
0 0 0 0
0 0 0 0
0 0 0 0
0 0 0 0
0 0 0 0
0 0 0 0
0 0 0 0
0 0 0 0
0 0 0 0
0 0 0 0
0 0 0 0
0 0 0 0
0 0 0 0
0 0 0 0
0 0 0 0
0 0 0 0
0 0 0 0
0 0 0 0
0 0 0 0
0 0 0 0
0 0 0 0
0 0 0 0
0 0 0 0
0 0 0 0
0 0 0 0
0 0 0 0
0 0 0 0
0 0 0 0
0 0 0 0
0 0 0 0
0 0 0 0
0 0 0 0
0 0 0 0
0 0 0 0
0 0 0 0
0 0 0 0
0 0 0 0
0 0 0 0
0 0 0 0
0 0 0 0
0 0 0 0
0 0 0 0
0 0 0 0
0 0 0 0
0 0 0 0
0 0 0 0
0 0 0 0
0 0 0 0
0 0 0 0
0 0 0 0
