# .PCD v0.7 - Point Cloud Data file format
VERSION 0.7
FIELDS x y z intensity
SIZE 4 4 4 4
TYPE F F F F
COUNT 1 1 1 1
WIDTH 1213
HEIGHT 1
VIEWPOINT 0 0 0 1 0 0 0
POINTS 1213
DATA ascii
-14.300037 4.377419 -2.1017921 17.02
-17.974604 5.5022492 -2.1982682 17.02
-28.12219 8.608552 -2.7438419 17.02
-38.029022 11.641156 -2.7810512 17.02
-4.4270735 1.3551821 -2.0613413 17.02
-48.3447 14.798913 -2.3577735 17.02
-4.7204466 1.4449873 -2.0620127 17.02
-48.353611 14.801641 -1.1740484 17.02
-5.0859175 1.5568626 -2.0769498 17.02
-48.366642 14.80563 0 17.02
-5.4972467 1.6827755 -2.0924792 17.02
-48.424351 14.823296 1.175766 17.02
-5.9770317 1.8296436 -2.1121318 17.02
-6.5191875 1.9956043 -2.1274214 17.02
-7.2172518 2.2092905 -2.1643045 17.02
-8.0181675 2.4544606 -2.1951835 17.02
-9.0066681 2.7570529 -2.2318137 17.02
-10.16492 3.1116083 -2.2595842 17.02
-11.208381 3.4310246 -2.2084942 17.02
-12.412151 3.8374553 -2.1344788 17.18
-14.283974 4.4161654 -2.1012354 17.18
-14.994757 4.6359177 -1.8354133 17.18
-28.073309 8.6794033 -2.7414267 17.18
-38.007805 11.750844 -2.7818882 17.18
-4.4250174 1.3680792 -2.0621548 17.18
-59.888927 18.515814 -2.9232965 17.18
-4.7199192 1.4592538 -2.0635545 17.18
-5.0779905 1.5699584 -2.0754948 17.18
-5.4835486 1.6953444 -2.0890591 17.18
-5.970089 1.8457677 -2.1114917 17.18
-6.5172372 2.0149293 -2.128613 17.18
-7.2092175 2.2288682 -2.1637533 17.18
-8.0112829 2.4768422 -2.1951835 17.18
-8.9970741 2.7816186 -2.2313526 17.18
-10.152453 3.1388261 -2.2587526 17.18
-11.215655 3.4675357 -2.211827 17.18
-12.387525 3.8701463 -2.1322091 17.35
-14.255684 4.4538021 -2.0990088 17.35
-15.009377 4.6892729 -1.8388978 17.35
-28.017021 8.7531586 -2.7384543 17.35
-38.005146 11.873677 -2.7842598 17.35
-4.4157066 1.3795679 -2.0597143 17.35
-4.7102842 1.4716007 -2.0612419 17.35
-5.0679755 1.5833515 -2.0733123 17.35
-5.480288 1.7121675 -2.0897431 17.35
-5.960969 1.8623432 -2.1102111 17.35
-6.5075855 2.0331187 -2.1274214 17.35
-7.2025728 2.2502487 -2.1637533 17.35
-8.000205 2.4994471 -2.1941705 17.35
-8.9887819 2.8083012 -2.2313526 17.35
-10.13936 3.1677685 -2.257921 17.35
-11.21845 3.5049007 -2.2144191 17.35
-12.386079 3.9076924 -2.1338303 17.51
-14.239414 4.4924026 -2.0984521 17.51
-17.847324 5.6306648 -2.1885114 17.51
-27.967781 8.8235741 -2.7360392 17.51
-38.004185 11.989966 -2.7866316 17.51
-4.4188066 1.3940923 -2.0629683 17.51
-4.7026362 1.4836379 -2.0597003 17.51
-5.0653105 1.5980583 -2.0740399 17.51
-5.4736929 1.7268991 -2.0890591 17.51
-5.957552 1.8795521 -2.1108515 17.51
-6.4982414 2.0501347 -2.12623 17.51
-7.1889272 2.2680395 -2.1615481 17.51
-7.9913487 2.5211961 -2.1936641 17.51
-8.9771919 2.8322206 -2.2304304 17.51
-10.134207 3.1972477 -2.2587526 17.51
-11.217991 3.5391715 -2.2162707 17.51
-12.37255 3.9438262 -2.1335061 17.68
-14.227909 4.535233 -2.0987303 17.68
-17.813505 5.6781645 -2.1864207 17.68
-27.945272 8.9077272 -2.7364106 17.68
-37.989353 12.10934 -2.7881663 17.68
-4.4076877 1.4049774 -2.0597143 17.68
-4.707005 1.5003868 -2.0635545 17.68
-5.0605469 1.6130804 -2.0740399 17.68
-5.4667544 1.7425616 -2.0883751 17.68
-5.9501438 1.8966448 -2.1102111 17.68
-6.4921298 2.0694063 -2.12623 17.68
-7.1839976 2.2899432 -2.1620994 17.68
-7.9801459 2.5437205 -2.192651 17.68
-8.9668951 2.858253 -2.2299693 17.68
-10.115355 3.2243319 -2.2566736 17.68
-11.213058 3.5742309 -2.2173815 17.68
-12.356342 3.9814656 -2.1328576 17.860001
-14.211706 4.5793018 -2.0984521 17.860001
-17.801252 5.7359266 -2.1871176 17.860001
-27.862183 8.9777641 -2.7310228 17.860001
-37.970112 12.234745 -2.7895613 17.860001
-4.4102082 1.4210591 -2.0629683 17.860001
-4.6952424 1.5129029 -2.0604711 17.860001
-5.0590005 1.6301132 -2.0754948 17.860001
-5.4630418 1.7603036 -2.0890591 17.860001
-5.9441562 1.9153284 -2.1102111 17.860001
-6.4837794 2.089206 -2.1256342 17.860001
-7.1712785 2.3107324 -2.1604457 17.860001
-7.9739571 2.5693717 -2.1931574 17.860001
-8.9615765 2.8876028 -2.2308915 17.860001
-10.1089 3.2572942 -2.2575052 17.860001
-11.220481 3.615468 -2.2210846 17.860001
-12.344475 4.0181098 -2.1328576 18.030001
-14.205589 4.6239004 -2.0995655 18.030001
-17.706709 5.7635102 -2.1775932 18.030001
-27.829742 9.0585442 -2.7304657 18.030001
-37.986763 12.364641 -2.7934678 18.030001
-4.4042349 1.4335726 -2.0621548 18.030001
-4.6942425 1.5279697 -2.0620127 18.030001
-5.0488272 1.6433866 -2.0733123 18.030001
-5.456008 1.7759234 -2.0883751 18.030001
-5.9402485 1.9335431 -2.1108515 18.030001
-6.4793673 2.1090255 -2.12623 18.030001
-7.1625628 2.3314047 -2.1598942 18.030001
-7.9607792 2.591223 -2.191638 18.030001
-8.9492683 2.9129748 -2.2299693 18.030001
-10.093611 3.2854569 -2.2562578 18.030001
-11.219049 3.6517854 -2.2229362 18.030001
-12.328041 4.0556378 -2.1322091 18.209999
-14.207925 4.6740761 -2.1020706 18.209999
-17.680967 5.8166261 -2.1766641 18.209999
-27.820063 9.1521521 -2.7323234 18.209999
-37.960999 12.488283 -2.7944443 18.209999
-4.397974 1.446831 -2.0613413 18.209999
-4.6824069 1.5404027 -2.0589294 18.209999
-5.0418696 1.6586576 -2.0725849 18.209999
-5.4468312 1.7918805 -2.0870068 18.209999
-5.9305453 1.9510111 -2.109571 18.209999
-6.476337 2.1305637 -2.1274214 18.209999
-7.1515508 2.3526933 -2.1587918 18.209999
-7.9507613 2.6156151 -2.1911316 18.209999
-8.940073 2.9410753 -2.2299693 18.209999
-10.081381 3.3165393 -2.2558417 18.209999
-11.211255 3.6882415 -2.2236767 18.209999
-12.312207 4.0909534 -2.1315606 18.379999
-14.201512 4.718709 -2.103184 18.379999
-27.798454 9.2365389 -2.7328808 18.379999
-37.961647 12.613443 -2.7972345 18.379999
-4.3988638 1.461602 -2.0637817 18.379999
-4.6760645 1.5537069 -2.0581586 18.379999
-5.0422301 1.6753721 -2.0747674 18.379999
-5.4414907 1.8080336 -2.0870068 18.379999
-5.9229321 1.9680012 -2.1089308 18.379999
-6.4627395 2.147362 -2.1250384 18.379999
-7.1445384 2.3739021 -2.1587918 18.379999
-7.9466376 2.640414 -2.1921446 18.379999
-8.9313068 2.9675882 -2.2299693 18.379999
-10.06964 3.34582 -2.2554259 18.379999
-11.211453 3.725208 -2.2258985 18.379999
-12.303758 4.1287222 -2.1322091 18.549999
-14.19496 4.7633452 -2.1042974 18.549999
-17.574575 5.8974295 -2.1678367 18.549999
-27.763376 9.3164444 -2.7321377 18.549999
-37.956207 12.736812 -2.7996063 18.549999
-4.387579 1.4723221 -2.0605278 18.549999
-4.6696844 1.5669872 -2.0573876 18.549999
-5.0301723 1.6879545 -2.0718575 18.549999
-5.4325385 1.822975 -2.0856388 18.549999
-5.9170671 1.9855663 -2.1089308 18.549999
-6.4563398 2.166528 -2.1250384 18.549999
-7.1338181 2.3938665 -2.1576893 18.549999
-7.9351001 2.6627495 -2.1911316 18.549999
-8.9169273 2.9922173 -2.2285857 18.549999
-10.057814 3.3750598 -2.2550101 18.549999
-11.209667 3.7615829 -2.2277501 18.549999
-12.285846 4.1633096 -2.1312363 18.719999
-14.193894 4.8098912 -2.1062458 18.719999
-17.579576 5.9571986 -2.1706243 18.719999
-27.722408 9.3943043 -2.7308371 18.719999
-37.956043 12.862181 -2.8023965 18.719999
-4.3831911 1.4853338 -2.0605278 18.719999
-4.670258 1.5826123 -2.0597003 18.719999
-5.0233774 1.7022741 -2.07113 18.719999
-5.432446 1.8408953 -2.0876911 18.719999
-5.9111495 2.0031137 -2.1089308 18.719999
-6.4462667 2.1844492 -2.123847 18.719999
-7.1285052 2.4156396 -2.1582406 18.719999
-7.9216671 2.6844187 -2.1896122 18.719999
-8.9043236 3.0174119 -2.2276635 18.719999
-10.038491 3.4017479 -2.2529311 18.719999
-11.217072 3.8011339 -2.2314529 18.719999
-12.269704 4.1984663 -2.1305878 18.889999
-14.183309 4.8532662 -2.1068025 18.889999
-17.53927 6.0016146 -2.1678367 18.889999
-27.686878 9.4739389 -2.730094 18.889999
-37.95924 12.988952 -2.8054659 18.889999
-4.3787646 1.4983325 -2.0605278 18.889999
-4.6603036 1.5946698 -2.0573876 18.889999
-5.016542 1.716568 -2.0704024 18.889999
-5.4287381 1.8576139 -2.0883751 18.889999
-5.9015946 2.0194168 -2.1076503 18.889999
-6.4415636 2.2041841 -2.1244426 18.889999
-7.1194873 2.4361572 -2.1576893 18.889999
-7.9154983 2.7085373 -2.1901186 18.889999
-8.8934908 3.0431883 -2.2272024 18.889999
-10.026503 3.4308844 -2.2525153 18.889999
-11.213182 3.8369441 -2.2329342 18.889999
-12.256454 4.2369919 -2.1305878 19.07
-14.179222 4.9016829 -2.1084726 19.07
-17.48278 6.0437055 -2.1631906 19.07
-27.64192 9.5556679 -2.7286077 19.07
-37.938992 13.115311 -2.8070004 19.07
-4.3723092 1.5114844 -2.0597143 19.07
-4.6570148 1.6099057 -2.0581586 19.07
-5.0076027 1.7311021 -2.0689476 19.07
-5.419323 1.8734316 -2.0870068 19.07
-5.8916402 2.0367091 -2.1063697 19.07
-6.4291935 2.2225387 -2.1226554 19.07
-7.1081648 2.4572554 -2.1565866 19.07
-7.901464 2.7314949 -2.1885991 19.07
-8.8838863 3.0711131 -2.2272024 19.07
-10.013826 3.4617274 -2.2520995 19.07
-11.20293 3.8727946 -2.2333045 19.07
-12.240102 4.272038 -2.1299393 19.24
-14.179576 4.9489532 -2.1106992 19.24
-17.44039 6.0870419 -2.1601708 19.24
-27.64353 9.64814 -2.7315803 19.24
-37.943233 13.242941 -2.8102093 19.24
-4.3695302 1.5250527 -2.0605278 19.24
-4.650475 1.623108 -2.0573876 19.24
-5.0059624 1.7471801 -2.0704024 19.24
-5.4137406 1.8895028 -2.0870068 19.24
-5.885571 2.0541811 -2.1063697 19.24
-6.4261761 2.2428629 -2.123847 19.24
-7.1081033 2.4808691 -2.1587918 19.24
-7.8969784 2.756202 -2.1896122 19.24
-8.8728971 3.0968173 -2.2267413 19.24
-9.9998169 3.4901345 -2.2512677 19.24
-11.209947 3.9124937 -2.2370076 19.24
-12.221788 4.3063688 -2.1289666 19.41
-14.17417 4.9942937 -2.1120911 19.41
-17.233023 6.0720863 -2.1367083 19.41
-27.577217 9.7168818 -2.7278645 19.41
-37.931999 13.365408 -2.8123021 19.41
-4.3684325 1.539225 -2.0621548 19.41
-4.6456389 1.6368991 -2.0573876 19.41
-4.9989991 1.7614063 -2.069675 19.41
-5.409883 1.9061819 -2.0876911 19.41
-5.8794503 2.0716348 -2.1063697 19.41
-6.4158916 2.2606509 -2.1226554 19.41
-7.0952711 2.5000315 -2.1571379 19.41
-7.8832912 2.7776916 -2.1880925 19.41
-8.8599987 3.1218364 -2.2258191 19.41
-9.9894171 3.519789 -2.2512677 19.41
-11.213119 3.9509623 -2.23997 19.41
-12.20634 4.3440819 -2.1286423 19.59
-14.162141 5.0401268 -2.1126478 19.59
-17.395395 6.1908007 -2.1592414 19.59
-27.565315 9.8101463 -2.7297225 19.59
-37.933056 13.499894 -2.8155107 19.59
-4.3584113 1.5511035 -2.0597143 19.59
-4.6422124 1.6521045 -2.0581586 19.59
-4.9934411 1.7771024 -2.069675 19.59
-66.458748 23.651825 0 19.59
-5.3932443 1.9193873 -2.0835867 19.59
-5.8729129 2.0900953 -2.1063697 19.59
-6.4123554 2.2820761 -2.123847 19.59
-7.0873823 2.5223095 -2.1571379 19.59
-7.876349 2.8030927 -2.1885991 19.59
-8.8519812 3.1503079 -2.2262802 19.59
-9.9801531 3.5518103 -2.2516837 19.59
-11.204354 3.9874878 -2.2407107 19.59
-12.176682 4.3742747 -2.1257243 19.76
-14.160172 5.0868115 -2.1145961 19.76
-17.347038 6.2316413 -2.1555247 19.76
-27.524843 9.8878517 -2.7286077 19.76
-37.926632 13.624526 -2.818022 19.76
-4.3555098 1.564646 -2.0605278 19.76
-4.6338162 1.6646231 -2.0566168 19.76
-4.9898996 1.7925402 -2.0704024 19.76
-5.3892941 1.9360163 -2.0842707 19.76
-5.8631196 2.1062303 -2.1050894 19.76
-6.4073529 2.3017373 -2.1244426 19.76
-7.0762486 2.5420272 -2.1560354 19.76
-7.8661761 2.8257959 -2.1880925 19.76
-8.838932 3.1752427 -2.225358 19.76
-9.9677305 3.580745 -2.2512677 19.76
-11.209122 4.0266943 -2.2440434 19.76
-12.181888 4.4121866 -2.1286423 19.91
-14.156117 5.1272373 -2.1159878 19.91
-27.480139 9.9530964 -2.7267499 19.91
-37.924599 13.736 -2.8205333 19.91
-4.3531165 1.5766655 -2.0613413 19.91
-57.759415 20.920019 -2.8647876 19.91
-4.6363831 1.6792625 -2.0597003 19.91
-4.9921961 1.8081353 -2.0733123 19.91
-5.3859744 1.9507588 -2.0849547 19.91
-5.8593669 2.1222179 -2.1057296 19.91
-6.4031 2.319154 -2.1250384 19.91
-7.0677619 2.5598893 -2.1554842 19.91
-7.8514748 2.8437443 -2.1860666 19.91
-8.8305893 3.1983719 -2.225358 19.91
-9.9491243 3.603497 -2.2491887 19.91
-11.200389 4.0566955 -2.2444136 19.91
-12.160553 4.4477239 -2.1273453 20.09
-14.151099 5.1757665 -2.1176579 20.09
-27.418812 10.028434 -2.7237773 20.09
-37.905617 13.863985 -2.8223469 20.09
-4.3464255 1.5897058 -2.0605278 20.09
-57.954208 21.19676 -2.8777378 20.09
-4.625885 1.6919181 -2.0573876 20.09
-66.477959 24.314323 -1.6434171 20.09
-4.9794927 1.8212501 -2.0704024 20.09
-5.3780541 1.9670241 -2.0842707 20.09
-5.8508911 2.1399643 -2.1050894 20.09
-6.3850245 2.3353236 -2.121464 20.09
-7.0524626 2.5794392 -2.1532791 20.09
-7.8443193 2.8690608 -2.186573 20.09
-8.8113594 3.2227557 -2.2230525 20.09
-9.9304056 3.6320474 -2.2475255 20.09
-11.20051 4.0965881 -2.2470059 20.09
-12.131709 4.4804354 -2.1247516 20.27
-14.129196 5.2181396 -2.116823 20.27
-17.393372 6.4236522 -2.1683013 20.27
-27.383434 10.113144 -2.7234058 20.27
-37.904922 13.998899 -2.8255558 20.27
-4.3414102 1.6033527 -2.0605278 20.27
-57.754269 21.329582 -2.8711228 20.27
-4.6153536 1.7045243 -2.0550752 20.27
-4.9702511 1.8355937 -2.0689476 20.27
-5.3718481 1.98391 -2.0842707 20.27
-5.8423619 2.1576784 -2.104449 20.27
-6.3776565 2.3553712 -2.121464 20.27
-7.0479312 2.6029143 -2.1543815 20.27
-7.8334522 2.8930199 -2.1860666 20.27
-8.804842 3.25177 -2.2239747 20.27
-9.9152765 3.6618712 -2.2466938 20.27
-11.207866 4.1392455 -2.2510791 20.27
-12.114663 4.5150328 -2.1241031 20.440001
-14.122931 5.2634969 -2.1182146 20.440001
-17.377958 6.4766188 -2.1687658 20.440001
-27.340246 10.189479 -2.7221053 20.440001
-37.908089 14.128024 -2.8289042 20.440001
-4.338346 1.6168648 -2.0613413 20.440001
-57.640182 21.48201 -2.8686075 20.440001
-4.6137342 1.7194998 -2.0566168 20.440001
-4.9647827 1.8503327 -2.0689476 20.440001
-5.3641772 1.9991835 -2.0835867 20.440001
-5.8359342 2.1750035 -2.104449 20.440001
-6.3724289 2.3749504 -2.1220596 20.440001
-7.0383754 2.6231432 -2.1538303 20.440001
-7.821208 2.9148982 -2.1850536 20.440001
-8.7933311 3.2772005 -2.2235136 20.440001
-9.9062004 3.6919575 -2.2471097 20.440001
-11.202902 4.1752272 -2.2525604 20.440001
-12.101213 4.5509577 -2.1241031 20.610001
-14.10169 5.3032861 -2.1173797 20.610001
-17.308464 6.5092716 -2.1624937 20.610001
-27.315485 10.272657 -2.7226627 20.610001
-37.901485 14.253781 -2.8315549 20.610001
-4.3352394 1.630373 -2.0621548 20.610001
-57.746357 21.716932 -2.8770857 20.610001
-4.6068845 1.7325318 -2.055846 20.610001
-4.9575272 1.8643996 -2.0682201 20.610001
-5.3617401 2.0164137 -2.0849547 20.610001
-5.8294554 2.1923094 -2.104449 20.610001
-6.3564191 2.3904872 -2.119081 20.610001
-7.0287623 2.6433382 -2.1532791 20.610001
-7.8107138 2.9374104 -2.1845469 20.610001
-8.7762833 3.3005362 -2.221669 20.610001
-9.8878784 3.7185788 -2.2454462 20.610001
-11.197823 4.2112155 -2.2540417 20.610001
-12.095038 4.5896435 -2.1254001 20.780001
-14.087745 5.3458056 -2.1176579 20.780001
-17.337362 6.5789223 -2.1685336 20.780001
-27.275576 10.350126 -2.7217338 20.780001
-37.907524 14.384578 -2.8351822 20.780001
-4.3286748 1.6425805 -2.0613413 20.780001
-57.648048 21.875416 -2.8754086 20.780001
-4.5982733 1.7448837 -2.0543044 20.780001
-4.9554572 1.8804225 -2.069675 20.780001
-5.350462 2.030313 -2.0829027 20.780001
-5.8211536 2.2089238 -2.1038089 20.780001
-6.3492985 2.4093363 -2.119081 20.780001
-7.0208883 2.6641812 -2.1532791 20.780001
-7.8001552 2.9598858 -2.1840405 20.780001
-8.7591734 3.3237996 -2.2198246 20.780001
-9.871315 3.7458184 -2.2441988 20.780001
-11.198142 4.2493024 -2.2566338 20.780001
-12.082402 4.6283245 -2.1257243 20.959999
-14.063482 5.3872032 -2.1165445 20.959999
-14.61199 5.5973163 -1.8298382 20.959999
-27.250364 10.438613 -2.7224767 20.959999
-37.897545 14.517157 -2.8378329 20.959999
-4.3183746 1.6542106 -2.0589008 20.959999
-57.478294 22.017822 -2.8703775 20.959999
-4.5962152 1.7606412 -2.055846 20.959999
-4.9443059 1.8939819 -2.0674925 20.959999
-5.3423023 2.0464396 -2.0822186 20.959999
-5.8124156 2.2265229 -2.1031687 20.959999
-6.3470464 2.4313202 -2.1208682 20.959999
-7.0124841 2.6862249 -2.1532791 20.959999
-7.7835908 2.9816074 -2.1820145 20.959999
-8.7523232 3.3526933 -2.2207468 20.959999
-9.8576717 3.7761116 -2.243783 20.959999
-11.204926 4.2921953 -2.2607071 20.959999
-12.064721 4.6578078 -2.1247516 21.110001
-14.051178 5.4247165 -2.116823 21.110001
-15.371904 5.934607 -1.9269401 21.110001
-27.189503 10.497008 -2.7191327 21.110001
-37.87244 14.621352 -2.8388095 21.110001
-4.320847 1.6681426 -2.0621548 21.110001
-4.5933118 1.7733327 -2.0566168 21.110001
-4.9428067 1.9082615 -2.0689476 21.110001
-5.3386798 2.0610957 -2.0829027 21.110001
-5.8065667 2.2417321 -2.1031687 21.110001
-6.3353162 2.4458656 -2.119081 21.110001
-7.0018401 2.7031894 -2.1521764 21.110001
-7.7829781 3.0047619 -2.1840405 21.110001
-8.743516 3.3755953 -2.2207468 21.110001
-9.8459263 3.8012013 -2.2433672 21.110001
-11.200985 4.3243465 -2.2621882 21.110001
-12.052886 4.699224 -2.1254001 21.299999
-14.029422 5.4698429 -2.1162663 21.299999
-15.370647 5.9927649 -1.9292631 21.299999
-27.106306 10.568307 -2.7143023 21.299999
-37.873932 14.76643 -2.8425763 21.299999
-4.3169937 1.6831255 -2.0629683 21.299999
-57.482506 22.411493 -2.8771787 21.299999
-4.5856867 1.7878845 -2.055846 21.299999
-4.9295087 1.9219351 -2.0660377 21.299999
-5.3283134 2.0774226 -2.0815346 21.299999
-5.7991009 2.2609751 -2.1031687 21.299999
-6.3289495 2.4675543 -2.1196766 21.299999
-6.9892554 2.7249968 -2.1510739 21.299999
-7.7675633 3.0284464 -2.1825211 21.299999
-8.7304602 3.4038644 -2.2202857 21.299999
-9.8369122 3.835252 -2.2441988 21.299999
-11.195739 4.365036 -2.2640398 21.299999
-12.034206 4.7306976 -2.1244273 21.459999
-14.010406 5.5075498 -2.1157095 21.459999
-17.189659 6.757328 -2.1599383 21.459999
-27.091515 10.649789 -2.7157886 21.459999
-37.886398 14.893304 -2.8466222 21.459999
-4.3054748 1.6925005 -2.0597143 21.459999
-57.544273 22.620897 -2.8834209 21.459999
-4.5806761 1.8006831 -2.055846 21.459999
-4.9293237 1.9377381 -2.0682201 21.459999
-57.223373 22.494751 0 21.459999
-5.3242407 2.0929816 -2.0822186 21.459999
-5.7874746 2.2750807 -2.101248 21.459999
-6.3238111 2.4859169 -2.1202724 21.459999
-6.9834075 2.7452071 -2.1516252 21.459999
-7.753674 3.048002 -2.1810014 21.459999
-8.7136765 3.4253831 -2.2184412 21.459999
-9.8225231 3.8612754 -2.2433672 21.459999
-11.194481 4.4005976 -2.2662616 21.459999
-12.016448 4.7649279 -2.1237788 21.629999
-13.999526 5.5512853 -2.1165445 21.629999
-15.023805 5.9574466 -1.8900042 21.629999
-26.980198 10.698561 -2.7077999 21.629999
-37.871716 15.017416 -2.8488543 21.629999
-4.2987361 1.7045941 -2.0589008 21.629999
-57.566044 22.826883 -2.887893 21.629999
-4.5684509 1.8115454 -2.0527627 21.629999
-4.9235525 1.9523551 -2.0682201 21.629999
-57.30883 22.724888 0 21.629999
-5.3127661 2.1066914 -2.0801666 21.629999
-5.7842212 2.2936394 -2.1025283 21.629999
-6.3093081 2.5018539 -2.1178894 21.629999
-6.9770188 2.766624 -2.1521764 21.629999
-7.7463946 3.0717075 -2.1815081 21.629999
-8.703475 3.4512219 -2.2184412 21.629999
-9.8037491 3.8875179 -2.2417037 21.629999
-11.185029 4.4352422 -2.2670023 21.629999
-11.999587 4.8019218 -2.1234546 21.809999
-13.969146 5.5900879 -2.1145961 21.809999
-14.955219 5.9846888 -1.8837321 21.809999
-26.946455 10.783269 -2.7077999 21.809999
-37.842873 15.143731 -2.8502495 21.809999
-4.2950559 1.7187694 -2.0597143 21.809999
-4.5593104 1.8245173 -2.0512209 21.809999
-4.9122062 1.9657367 -2.0660377 21.809999
-5.3061213 2.1233716 -2.0801666 21.809999
-5.7699509 2.3089838 -2.0999675 21.809999
-6.2960997 2.5195351 -2.1161022 21.809999
-6.961153 2.7856719 -2.1499715 21.809999
-7.73491 3.0953095 -2.1810014 21.809999
-8.6889753 3.4771016 -2.217519 21.809999
-9.7914877 3.918298 -2.2417037 21.809999
-11.181988 4.47474 -2.2692242 21.809999
-11.983457 4.8367658 -2.1231303 21.98
-13.950662 5.6307693 -2.1143177 21.98
-14.953975 6.035727 -1.8858228 21.98
-26.855249 10.839322 -2.7018547 21.98
-37.825527 15.267148 -2.8523421 21.98
-4.2882428 1.7308216 -2.0589008 21.98
-57.527424 23.219233 -2.8930171 21.98
-4.5607224 1.8407999 -2.0543044 21.98
-4.9046245 1.9796057 -2.06531 21.98
-5.299798 2.1391058 -2.0801666 21.98
-5.7630744 2.3260934 -2.0999675 21.98
-6.2921371 2.539634 -2.1172936 21.98
-6.9564228 2.8077531 -2.1510739 21.98
-7.7203097 3.1160731 -2.179482 21.98
-8.6786203 3.502867 -2.217519 21.98
-9.772562 3.9444039 -2.2400405 21.98
-11.163195 4.5056911 -2.2681131 21.98
-11.960892 4.8714113 -2.1218333 22.16
-13.923732 5.6708336 -2.112926 22.16
-14.993811 6.1066532 -1.8932564 22.16
-26.856106 10.937908 -2.7053847 22.16
-37.836506 15.409986 -2.8568065 22.16
-4.2827845 1.744285 -2.0589008 22.16
-57.737286 23.515142 -2.9072716 22.16
-4.5532079 1.8544226 -2.0535336 22.16
-4.8983812 1.9950042 -2.06531 22.16
-5.2895703 2.1543272 -2.0787985 22.16
-5.7539835 2.3434725 -2.0993273 22.16
-6.2823596 2.5586686 -2.116698 22.16
-6.9368849 2.8252425 -2.1477664 22.16
-7.714066 3.1417716 -2.180495 22.16
-8.6711779 3.5315824 -2.2184412 22.16
-9.7619343 3.9758236 -2.2404563 22.16
-11.152625 4.5422215 -2.2688537 22.16
-11.945415 4.9040437 -2.1215091 22.32
-13.902346 5.7074375 -2.1120911 22.32
-26.818089 11.009837 -2.7046416 22.32
-37.817318 15.525435 -2.8586204 22.32
-4.2745161 1.7548501 -2.0572739 22.32
-4.5497189 1.8678312 -2.0543044 22.32
-4.8858972 2.0058451 -2.0624001 22.32
-5.2800565 2.1676624 -2.0774302 22.32
-5.7439113 2.3580923 -2.0980468 22.32
-6.2698913 2.5740271 -2.1149106 22.32
-6.9236326 2.8424125 -2.1461124 22.32
-7.698103 3.1603618 -2.1784689 22.32
-8.6522808 3.5520875 -2.2161355 22.32
-9.7471743 4.0015826 -2.2396247 22.32
-11.138079 4.5726018 -2.2684834 22.32
-11.921695 4.9356904 -2.1198878 22.49
-13.87803 5.7456307 -2.1109776 22.49
-14.927189 6.1799922 -1.8893073 22.49
-26.730106 11.066507 -2.6990681 22.49
-37.769241 15.63681 -2.8584807 22.49
-4.2676024 1.7668263 -2.0564604 22.49
-4.5475669 1.8827341 -2.055846 22.49
-4.8885307 2.0238962 -2.0660377 22.49
-5.278811 2.1854758 -2.0794826 22.49
-5.7351389 2.3743997 -2.0974066 22.49
-6.2622266 2.5926187 -2.1149106 22.49
-6.9187212 2.8644135 -2.1472149 22.49
-7.6851168 3.1817083 -2.1774559 22.49
-8.6435013 3.5784883 -2.2165968 22.49
-9.7334509 4.029737 -2.2392089 22.49
-11.115383 4.6018696 -2.2666318 22.49
-11.909773 4.9746404 -2.1205363 22.67
-13.854429 5.7869115 -2.1101425 22.67
-26.669483 11.139683 -2.6964672 22.67
-37.743866 15.765386 -2.8602943 22.67
-4.2637167 1.7809289 -2.0572739 22.67
-38.084385 15.907618 -1.924734 22.67
-4.5382237 1.8955889 -2.0543044 22.67
-57.77195 24.130995 -1.4535992 22.67
-4.8838673 2.0399621 -2.0667651 22.67
-5.2719193 2.202049 -2.0794826 22.67
-5.7311478 2.3938658 -2.0986869 22.67
-6.2522888 2.6115434 -2.114315 22.67
-6.9061403 2.8846531 -2.1461124 22.67
-7.6750832 3.2058361 -2.1774559 22.67
-8.6286249 3.6041248 -2.2156744 22.67
-9.7171326 4.0587878 -2.2383773 22.67
-11.104498 4.6382818 -2.2673726 22.67
-11.898598 5.0114875 -2.1211848 22.84
-13.835373 5.8272243 -2.1098642 22.84
-14.801286 6.2340503 -1.8781568 22.84
-26.647326 11.223401 -2.6975818 22.84
-37.673019 15.867236 -2.8584807 22.84
-4.2584138 1.7935716 -2.0572739 22.84
-4.5291781 1.9076129 -2.0527627 22.84
-4.8709254 2.0515511 -2.0638552 22.84
-5.2636304 2.2169518 -2.0787985 22.84
-5.7222738 2.4101245 -2.0980468 22.84
-6.2480321 2.6315651 -2.1155064 22.84
-6.9010944 2.9066238 -2.1472149 22.84
-7.6637545 3.2278433 -2.1769495 22.84
-8.6143064 3.6281996 -2.2147522 22.84
-9.7068501 4.0883603 -2.2387931 22.84
-11.088876 4.6704464 -2.2670023 22.84
-11.87096 5.041369 -2.1189151 23.01
-13.805262 5.8628297 -2.1079159 23.01
-14.768096 6.2717271 -1.8762984 23.01
-26.61574 11.303194 -2.6977675 23.01
-37.633121 15.982064 -2.8590388 23.01
-4.2581186 1.8083413 -2.0597143 23.01
-49.335175 20.951702 -2.4995735 23.01
-4.525197 1.9217643 -2.0535336 23.01
-4.8648171 2.0659945 -2.0638552 23.01
-5.2501101 2.2296209 -2.0760622 23.01
-5.7168417 2.4278328 -2.0986869 23.01
-6.2384391 2.6493454 -2.1149106 23.01
-6.8906703 2.9263356 -2.1466637 23.01
-7.6488008 3.2482991 -2.1754301 23.01
-8.6017122 3.652982 -2.2142911 23.01
-9.6892748 4.1148491 -2.2375457 23.01
-11.069543 4.7010221 -2.2658913 23.01
-11.858692 5.0801921 -2.1195636 23.190001
-13.786775 5.9061708 -2.1079159 23.190001
-14.845097 6.3595495 -1.8886104 23.190001
-26.550812 11.374207 -2.6947951 23.190001
-37.599232 16.107285 -2.8602943 23.190001
-4.2490578 1.8202707 -2.0580873 23.190001
-49.142395 21.052305 -2.493145 23.190001
-4.5191369 1.9359711 -2.0535336 23.190001
-4.8565903 2.080534 -2.0631278 23.190001
-5.2448072 2.2468438 -2.0767462 23.190001
-5.7109275 2.446527 -2.0993273 23.190001
-6.2230654 2.6659236 -2.1125276 23.190001
-6.8796759 2.9472117 -2.1461124 23.190001
-7.6385584 3.2723124 -2.1754301 23.190001
-8.5901937 3.6799872 -2.2142911 23.190001
-9.6780987 4.146039 -2.2379615 23.190001
-11.061946 4.7388706 -2.2673726 23.190001
-11.838131 5.1130075 -2.1185908 23.360001
-13.767372 5.9462657 -2.1076374 23.360001
-14.820691 6.4012051 -1.8879135 23.360001
-17.454933 7.5389605 -1.7738644 23.360001
-37.543949 16.215607 -2.8597364 23.360001
-4.238606 1.8306965 -2.0556469 23.360001
-48.799103 21.076822 -2.4788904 23.360001
-4.5150671 1.9501028 -2.0543044 23.360001
-77.538094 33.489479 -1.9609407 23.360001
-4.8521061 2.0956731 -2.0638552 23.360001
-5.245019 2.2653763 -2.0794826 23.360001
-5.7001648 2.4619582 -2.0980468 23.360001
-6.2168808 2.6851332 -2.1131234 23.360001
-6.8620763 2.9637997 -2.1433561 23.360001
-7.6323681 3.2964964 -2.1764429 23.360001
-8.5738773 3.7031436 -2.2129078 23.360001
-9.6639585 4.1739602 -2.2375457 23.360001
-11.044228 4.7701125 -2.2666318 23.360001
-11.817466 5.1408329 -2.1172938 23.51
-13.751758 5.9822884 -2.1076374 23.51
-14.76745 6.4241352 -1.8832674 23.51
-26.508785 11.53185 -2.6970243 23.51
-37.45929 16.295536 -2.8565276 23.51
-4.2405005 1.8447022 -2.0589008 23.51
-48.820702 21.237978 -2.4828036 23.51
-4.5065618 1.9604442 -2.0527627 23.51
-4.8448944 2.1076257 -2.0631278 23.51
-5.2321768 2.2761011 -2.0767462 23.51
-5.6919622 2.4761169 -2.0974066 23.51
-6.2098298 2.7013996 -2.1131234 23.51
-6.8578196 2.983288 -2.1444585 23.51
-7.614841 3.3126075 -2.1739104 23.51
-8.5677223 3.7271299 -2.21383 23.51
-9.6458225 4.1961246 -2.2358823 23.51
-11.024493 4.7958741 -2.2651508 23.51
-11.794028 5.1747618 -2.1159971 23.690001
-13.731082 6.0246654 -2.1073592 23.690001
-14.799949 6.4936428 -1.8900042 23.690001
-18.746059 8.2250423 -1.9098582 23.690001
-37.354927 16.389891 -2.8524818 23.690001
-4.2346845 1.8580151 -2.0589008 23.690001
-48.740932 21.385628 -2.4821513 23.690001
-4.5020709 1.9753338 -2.0535336 23.690001
-4.8365431 2.1220872 -2.0624001 23.690001
-5.2267213 2.2932823 -2.0774302 23.690001
-5.6876254 2.4955091 -2.0986869 23.690001
-6.1925707 2.7170596 -2.1101446 23.690001
-6.843132 3.0025005 -2.1428049 23.690001
-7.599081 3.3341818 -2.1723909 23.690001
-8.5524063 3.7524638 -2.2129078 23.690001
-9.6290092 4.2248354 -2.2350507 23.690001
-11.003972 4.8281155 -2.2640398 23.690001
-11.777713 5.2117882 -2.1159971 23.870001
-13.701221 6.0629644 -2.105689 23.870001
-15.01381 6.6438022 -1.919971 23.870001
-26.419416 11.690928 -2.6953523 23.870001
-37.239395 16.478907 -2.8475988 23.870001
-4.2288265 1.8713095 -2.0589008 23.870001
-48.753891 21.574219 -2.4862506 23.870001
-4.5009055 1.991708 -2.055846 23.870001
-4.8315563 2.1380253 -2.0631278 23.870001
-5.2177725 2.3089306 -2.0767462 23.870001
-5.6710939 2.5095313 -2.0954859 23.870001
-6.1909881 2.7395909 -2.1125276 23.870001
-6.8406978 3.0270958 -2.14501 23.870001
-7.5885692 3.3580384 -2.1723909 23.870001
-8.540576 3.7793136 -2.2129078 23.870001
-9.6139002 4.2542729 -2.2346349 23.870001
-10.995939 4.8658433 -2.265521 23.870001
-11.760395 5.2459064 -2.1156728 24.040001
-13.686789 6.1052036 -2.1062458 24.040001
-14.874297 6.6349101 -1.9046391 24.040001
-26.420984 11.785489 -2.6990681 24.040001
-37.13932 16.566568 -2.8436923 24.040001
-4.2215867 1.8831041 -2.0580873 24.040001
-48.726158 21.735056 -2.4881139 24.040001
-4.4966617 2.0058055 -2.0566168 24.040001
-4.8268929 2.1531103 -2.0638552 24.040001
-5.212615 2.3251677 -2.0774302 24.040001
-5.6601624 2.5248029 -2.0942054 24.040001
-6.1723704 2.7532814 -2.1089532 24.040001
-6.8264189 3.0450296 -2.1433561 24.040001
-7.575038 3.378963 -2.1713779 24.040001
-8.5239925 3.8022587 -2.2115245 24.040001
-9.5994482 4.2819824 -2.2342191 24.040001
-10.985044 4.9000487 -2.2662616 24.040001
-11.741179 5.2791581 -2.1150243 24.209999
-13.67042 6.1465983 -2.106524 24.209999
-26.413143 11.876079 -2.7018547 24.209999
-37.075443 16.670143 -2.8425763 24.209999
-4.2209802 1.8978692 -2.0605278 24.209999
-48.74527 21.917219 -2.4923997 24.209999
-4.485641 2.0168681 -2.0543044 24.209999
-4.8102884 2.1628385 -2.0594902 24.209999
-5.1971226 2.3367698 -2.0740101 24.209999
-5.6543741 2.5423629 -2.0948455 24.209999
-6.1676569 2.7731488 -2.1101446 24.209999
-6.8173542 3.0652707 -2.1433561 24.209999
-7.56145 3.3998368 -2.1703649 24.209999
-8.5162239 3.8291295 -2.2124467 24.209999
-9.5831327 4.3088412 -2.2333875 24.209999
-10.970456 4.93262 -2.2662616 24.209999
-11.731726 5.3192778 -2.1163213 24.389999
-13.638416 6.1837897 -2.1045756 24.389999
-14.762932 6.693656 -1.8955793 24.389999
-26.315853 11.931863 -2.695724 24.389999
-36.953842 16.75523 -2.8372748 24.389999
-4.2133331 1.9103659 -2.0597143 24.389999
-48.765331 22.110674 -2.4969649 24.389999
-4.4843254 2.0332365 -2.0566168 24.389999
-4.8085599 2.1802478 -2.0616727 24.389999
-5.1931791 2.3546379 -2.0753782 24.389999
-5.6480851 2.5608964 -2.0954859 24.389999
-6.153698 2.7901461 -2.1083574 24.389999
-6.8041887 3.0850852 -2.1422536 24.389999
-7.5489697 3.422776 -2.1698585 24.389999
-8.4988346 3.8534539 -2.2110634 24.389999
-9.5677671 4.3381181 -2.2329717 24.389999
-10.956697 4.9678721 -2.2666318 24.389999
-11.708712 5.3507819 -2.1150243 24.559999
-13.627213 6.2275214 -2.105689 24.559999
-15.373559 7.0255861 -1.9766526 24.559999
-26.264034 12.002441 -2.694052 24.559999
-36.882191 16.854849 -2.8356006 24.559999
-4.2059846 1.9220994 -2.0589008 24.559999
-4.4816298 2.0480669 -2.0581586 24.559999
-4.7952924 2.1914079 -2.0587628 24.559999
-5.1844606 2.3692546 -2.0746942 24.559999
-5.6370153 2.5760684 -2.0942054 24.559999
-6.152338 2.8115666 -2.1107404 24.559999
-6.7915082 3.1036618 -2.141151 24.559999
-7.5387807 3.4451592 -2.1698585 24.559999
-8.4785137 3.874609 -2.2087576 24.559999
-9.544178 4.3616085 -2.2304766 24.559999
-10.93297 4.9962749 -2.2647805 24.559999
-11.687406 5.3830218 -2.1140516 24.73
-13.603279 6.2654409 -2.1048539 24.73
-15.312951 7.052887 -1.971542 24.73
-26.230116 12.081148 -2.6942377 24.73
-36.851952 16.973387 -2.8371353 24.73
-4.2019224 1.9353346 -2.0597143 24.73
-48.843761 22.496613 -2.5077722 24.73
-4.4721808 2.0598111 -2.0566168 24.73
-4.7803082 2.2017293 -2.0551255 24.73
-5.1739941 2.3830545 -2.0733261 24.73
-5.6276259 2.5919895 -2.093565 24.73
-6.1352983 2.825815 -2.1077616 24.73
-6.7805233 3.1229947 -2.1405997 24.73
-7.5214963 3.4642744 -2.1678324 24.73
-8.46698 3.8997483 -2.2087576 24.73
-9.5329714 4.3907261 -2.2308924 24.73
-10.914527 5.0270472 -2.2640398 24.73
-11.667803 5.4160137 -2.1134031 24.9
-13.582833 6.3049412 -2.1045756 24.9
-15.322589 7.1125088 -1.975491 24.9
-15.136327 7.0260491 -1.5568688 24.9
-36.768856 17.067533 -2.8346241 24.9
-4.1928473 1.9462548 -2.0580873 24.9
-48.776798 22.641436 -2.5077722 24.9
-4.4643755 2.0722942 -2.055846 24.9
-4.7737546 2.215903 -2.0551255 24.9
-5.1634912 2.3968129 -2.0719581 24.9
-50.296551 23.346882 1.2874099 24.9
-5.6181922 2.607878 -2.0929248 24.9
-6.1199603 2.840791 -2.1053786 24.9
-6.7642517 3.1398611 -2.1383946 24.9
-7.5129395 3.4873903 -2.168339 24.9
-8.4553719 3.9248531 -2.2087576 24.9
-9.5199022 4.4189916 -2.2308924 24.9
-10.883519 5.0519614 -2.2607071 24.9
-11.648107 5.4489365 -2.1127546 25.07
-13.564066 6.3452144 -2.1045756 25.07
-15.355397 7.1831918 -1.9824601 25.07
-26.112869 12.215493 -2.6895931 25.07
-36.683716 17.160492 -2.8319733 25.07
-4.1853991 1.9579126 -2.0572739 25.07
-48.926559 22.887644 -2.5189521 25.07
-4.4615507 2.087095 -2.0573876 25.07
-4.7755961 2.2340043 -2.0587628 25.07
-5.1597619 2.4137154 -2.0733261 25.07
-49.776093 23.285053 1.2758509 25.07
-5.6121459 2.6253388 -2.093565 25.07
-6.1166925 2.8613636 -2.1071661 25.07
-6.7618718 3.1631758 -2.1405997 25.07
-7.5025592 3.5096664 -2.168339 25.07
-8.4401646 3.9482741 -2.2078354 25.07
-9.4996605 4.4439025 -2.2292292 25.07
-10.864922 5.0825658 -2.2599664 25.07
-11.629146 5.4846611 -2.1124303 25.25
-13.536901 6.3844166 -2.1034622 25.25
-15.352518 7.2407179 -1.9850154 25.25
-15.136352 7.1387668 -1.5613277 25.25
-36.633232 17.277355 -2.8322523 25.25
-4.1825328 1.9726105 -2.0589008 25.25
-48.993549 23.106857 -2.5261261 25.25
-4.4482951 2.0979521 -2.0543044 25.25
-4.7668695 2.2482016 -2.0580354 25.25
-5.1453543 2.4267066 -2.07059 25.25
-5.6021566 2.6421487 -2.0929248 25.25
-6.1076732 2.8805656 -2.1071661 25.25
-6.741468 3.1794827 -2.1372921 25.25
-7.4879961 3.5315683 -2.167326 25.25
-8.4224377 3.9722798 -2.2064521 25.25
-9.4838839 4.4728899 -2.2288134 25.25
-10.840013 5.1124816 -2.2581151 25.25
-11.609257 5.517447 -2.1117818 25.42
-13.519687 6.4254036 -2.1037407 25.42
-15.187435 7.2180223 -1.9664314 25.42
-36.491711 17.343151 -2.8252766 25.42
-4.1783113 1.9857959 -2.0597143 25.42
-49.07093 23.321585 -2.5336726 25.42
-4.4487181 2.11431 -2.0573876 25.42
-4.7601781 2.2623353 -2.0580354 25.42
-5.1381311 2.4419625 -2.07059 25.42
-5.5925813 2.6579456 -2.0922847 25.42
-6.0973749 2.8978553 -2.1065702 25.42
-6.7320046 3.199471 -2.1372921 25.42
-7.47399 3.552109 -2.1663129 25.42
-8.4088573 3.9964166 -2.205991 25.42
-9.4688034 4.5001698 -2.2283976 25.42
-10.824796 5.1446218 -2.2581151 25.42
-11.582155 5.5467534 -2.1098363 25.59
-13.491632 6.4612117 -2.1023488 25.59
-15.113996 7.2381701 -1.9596946 25.59
-17.547081 8.4033871 -1.8151084 25.59
-36.346523 17.406536 -2.818022 25.59
-4.1674576 1.9958168 -2.0572739 25.59
-48.837551 23.388554 -2.5251944 25.59
-4.4390965 2.125906 -2.055846 25.59
-4.7551246 2.2772536 -2.0587628 25.59
-5.1376433 2.4604437 -2.0733261 25.59
-50.008141 23.949156 1.287317 25.59
-5.5795436 2.6720722 -2.090364 25.59
-6.0939159 2.9184077 -2.1083574 25.59
-6.7207479 3.2186007 -2.1367407 25.59
-7.4616728 3.5734334 -2.1658063 25.59
-8.3864317 4.016305 -2.2032242 25.59
-9.4465876 4.5240192 -2.2263184 25.59
-10.807711 5.175868 -2.2577446 25.59
-11.574533 5.5853825 -2.1114576 25.76
-13.479536 6.5046563 -2.1034622 25.76
-14.988688 7.2329097 -1.9462211 25.76
-15.19237 7.3311982 -1.5737752 25.76
-36.269558 17.502163 -2.8160689 25.76
-4.1598721 2.0073791 -2.0564604 25.76
-48.79493 23.546379 -2.526592 25.76
-4.4327693 2.1390676 -2.055846 25.76
-4.7449913 2.2897329 -2.057308 25.76
-49.08392 23.685833 0 25.76
-5.1218572 2.4715927 -2.069906 25.76
-5.5732975 2.6894388 -2.0910041 25.76
-6.078352 2.9331567 -2.1059744 25.76
-6.7042427 3.2351851 -2.1345358 25.76
-7.4510374 3.595557 -2.1658063 25.76
-8.3832417 4.0453992 -2.2055299 25.76
-9.4278374 4.5494776 -2.225071 25.76
-10.785226 5.2044959 -2.2562635 25.76
-11.559872 5.6156654 -2.1114576 25.91
-13.457116 6.5373273 -2.1026273 25.91
-14.937539 7.2565012 -1.9420397 25.91
-15.105061 7.3378816 -1.5667154 25.91
-36.189518 17.580492 -2.8134181 25.91
-4.159533 2.0206578 -2.0589008 25.91
-48.916412 23.763084 -2.5360949 25.91
-4.422174 2.1482463 -2.0535336 25.91
-49.245937 23.923164 -1.2711159 25.91
-4.7406564 2.3029616 -2.0580354 25.91
-5.1204405 2.4874568 -2.0719581 25.91
-5.5645332 2.7031925 -2.090364 25.91
-6.0637832 2.9457228 -2.1035914 25.91
-6.6992087 3.254406 -2.1356382 25.91
-7.438118 3.6133604 -2.1647935 25.91
-8.3673706 4.0647817 -2.2041466 25.91
-9.4229336 4.5775633 -2.2267342 25.91
-10.773332 5.2335725 -2.2566338 25.91
-11.530552 5.6487589 -2.1095121 26.1
-13.428249 6.5784316 -2.1015139 26.1
-17.317795 8.4839001 -1.799131 26.1
-36.03606 17.653885 -2.8060238 26.1
-4.1478868 2.0320289 -2.0564604 26.1
-48.835548 23.924288 -2.5360017 26.1
-4.4083967 2.1596513 -2.0504501 26.1
-68.628532 33.62077 -1.7742796 26.1
-4.7296472 2.3170302 -2.0565803 26.1
-5.110476 2.5035963 -2.071274 26.1
-5.55724 2.7224638 -2.0910041 26.1
-6.0539813 2.9658148 -2.1035914 26.1
-6.6814737 3.2732203 -2.1334331 26.1
-7.4191446 3.6346016 -2.1627674 26.1
-8.3520975 4.0916505 -2.2036855 26.1
-9.3936472 4.6019001 -2.2234075 26.1
-10.750622 5.2666755 -2.2555227 26.1
-11.527122 5.6870484 -2.1117818 26.26
-13.416931 6.6194096 -2.1026273 26.26
-15.227846 7.5128469 -1.9857123 26.26
-25.728539 12.693494 -2.6765883 26.26
-35.84885 17.686476 -2.7952814 26.26
-4.145473 2.0452206 -2.0580873 26.26
-48.761383 24.057034 -2.535629 26.26
-4.4089684 2.1752195 -2.0535336 26.26
-4.721488 2.3294046 -2.0558529 26.26
-5.1000938 2.5161946 -2.069906 26.26
-5.544518 2.7354569 -2.0890834 26.26
-6.0508122 2.9852433 -2.1053786 26.26
-6.672307 3.2918656 -2.1334331 26.26
-7.4107013 3.6561615 -2.1632738 26.26
-8.3406391 4.1149578 -2.2036855 26.26
-9.3790054 4.6272488 -2.2229917 26.26
-10.725297 5.2914586 -2.2533009 26.26
-11.501131 5.7217264 -2.1104848 26.450001
-13.387814 6.6603365 -2.1015139 26.450001
-25.654211 12.762777 -2.673244 26.450001
-35.78286 17.801702 -2.7947233 26.450001
-4.1403041 2.0597701 -2.0589008 26.450001
-48.779716 24.267542 -2.5407534 26.450001
-4.3984265 2.1881843 -2.0519917 26.450001
-4.7187414 2.3475382 -2.0580354 26.450001
-5.091722 2.5330935 -2.069906 26.450001
-5.53372 2.7529843 -2.0884433 26.450001
-6.0340419 3.0018904 -2.1029956 26.450001
-6.6596332 3.3131175 -2.1328819 26.450001
-7.3933396 3.6781309 -2.1617544 26.450001
-8.3234625 4.1408601 -2.2027631 26.450001
-9.3653603 4.6591964 -2.2234075 26.450001
-10.702412 5.3243694 -2.2521901 26.450001
-11.492926 5.7602472 -2.1121061 26.620001
-13.367993 6.7000299 -2.1015139 26.620001
-14.73992 7.3876386 -1.9281015 26.620001
-15.32274 7.6797476 -1.5990418 26.620001
-35.701344 17.893492 -2.7924912 26.620001
-4.135808 2.0728643 -2.0597143 26.620001
-48.798588 24.457821 -2.5455048 26.620001
-4.3952146 2.2028787 -2.0535336 26.620001
-4.7167516 2.364033 -2.0602179 26.620001
-5.0808234 2.5465055 -2.0685377 26.620001
-5.5238338 2.7685421 -2.0878029 26.620001
-6.0268154 3.0206361 -2.1035914 26.620001
-6.6480546 3.332001 -2.1323307 26.620001
-7.3806639 3.6991842 -2.161248 26.620001
-8.3024406 4.1611781 -2.2004576 26.620001
-9.3462486 4.6843338 -2.2221601 26.620001
-10.684811 5.3552203 -2.2518198 26.620001
-11.482081 5.7949867 -2.1130788 26.780001
-13.350999 6.7382264 -2.1017921 26.780001
-15.268986 7.7062311 -2.0001149 26.780001
-35.620956 17.977837 -2.7901194 26.780001
-4.1251097 2.0819359 -2.0572739 26.780001
-48.78717 24.622803 -2.548486 26.780001
-4.3824553 2.2118177 -2.0504501 26.780001
-4.7084684 2.3763561 -2.0594902 26.780001
-48.972317 24.716246 0 26.780001
-5.0703368 2.5589902 -2.0671697 26.780001
-5.5143895 2.783103 -2.0871627 26.780001
-6.0183568 3.0374544 -2.1035914 26.780001
-6.6335754 3.347954 -2.1306767 26.780001
-7.3651233 3.7171652 -2.1597283 26.780001
-8.2873135 4.1825929 -2.1995354 26.780001
-9.3296385 4.7086525 -2.2213285 26.780001
-10.668059 5.3841515 -2.2514496 26.780001
-11.4578 5.8254514 -2.1117818 26.950001
-13.318589 6.7715268 -2.0998437 26.950001
-15.265532 7.7614045 -2.0026703 26.950001
-15.11317 7.683939 -1.5817639 26.950001
-35.539005 18.068979 -2.7878873 26.950001
-4.1238003 2.0966504 -2.0597143 26.950001
-48.779793 24.800949 -2.5519333 26.950001
-4.3758736 2.2248111 -2.0504501 26.950001
-4.7030578 2.3911602 -2.0602179 26.950001
-5.0643969 2.5748746 -2.0678537 26.950001
-5.5044184 2.7985935 -2.0865226 26.950001
-6.0042124 3.052702 -2.1018043 26.950001
-6.6218987 3.3667502 -2.1301255 26.950001
-7.3506126 3.7372477 -2.1587152 26.950001
-8.2748671 4.2071633 -2.1995354 26.950001
-9.3173704 4.7371998 -2.2217443 26.950001
-10.643277 5.4113264 -2.249598 26.950001
-11.439442 5.8614182 -2.1117818 27.129999
-13.297251 6.8133349 -2.0998437 27.129999
-15.166822 7.7712784 -1.9929137 27.129999
-25.430046 13.030019 -2.6658127 27.129999
-35.487392 18.183268 -2.7883058 27.129999
-4.1188192 2.1104283 -2.0605278 27.129999
-48.770981 24.989603 -2.5555668 27.129999
-4.3705049 2.2393889 -2.0512209 27.129999
-4.6905484 2.4033749 -2.0580354 27.129999
-48.820423 25.014936 0 27.129999
-5.0512648 2.5882013 -2.0658016 27.129999
-5.4955993 2.8158722 -2.0865226 27.129999
-5.9962916 3.0724204 -2.1024001 27.129999
-6.611289 3.3875368 -2.1301255 27.129999
-7.3388352 3.7603219 -2.1587152 27.129999
-8.2598772 4.2322512 -2.1990743 27.129999
-9.2937365 4.7619872 -2.2196653 27.129999
-10.619228 5.4411516 -2.2481167 27.129999
-11.420246 5.8944287 -2.1114576 27.299999
-13.269937 6.8491249 -2.0987303 27.299999
-15.131341 7.8098674 -1.9912876 27.299999
-25.385965 13.102674 -2.6652553 27.299999
-35.38187 18.261944 -2.7842598 27.299999
-4.1044216 2.1184499 -2.0564604 27.299999
-48.710823 25.141529 -2.5563121 27.299999
-4.3638415 2.2523465 -2.0512209 27.299999
-4.6784301 2.4147179 -2.0558529 27.299999
-5.0469036 2.6049011 -2.0671697 27.299999
-5.4821692 2.8295584 -2.0846019 27.299999
-5.9803629 3.0866954 -2.1000168 27.299999
-6.5943756 3.4036109 -2.1279204 27.299999
-7.3310843 3.783855 -2.1597283 27.299999
-8.2490129 4.2576327 -2.1995354 27.299999
-9.2778282 4.7886443 -2.2192495 27.299999
-10.610023 5.4762411 -2.249598 27.299999
-11.399205 5.9264665 -2.1108091 27.469999
-13.244285 6.8857269 -2.0978954 27.469999
-15.252626 7.9298673 -2.0103364 27.469999
-25.301039 13.154055 -2.6604249 27.469999
-35.34346 18.375128 -2.7855155 27.469999
-4.1013603 2.1323042 -2.0580873 27.469999
-48.733501 25.336634 -2.5614364 27.469999
-4.3587766 2.2661357 -2.0519917 27.469999
-4.6728983 2.4294479 -2.0565803 27.469999
-48.474152 25.201796 0 27.469999
-5.0391526 2.6198642 -2.0671697 27.469999
-5.4787927 2.848434 -2.0865226 27.469999
-5.974566 3.1061873 -2.1012084 27.469999
-6.5876594 3.4249356 -2.1290228 27.469999
-7.3095255 3.800235 -2.1566894 27.469999
-8.231163 4.2793961 -2.1981521 27.469999
-9.2618437 4.8152485 -2.2188334 27.469999
-10.585009 5.5031648 -2.2477465 27.469999
-11.376326 5.9575157 -2.1098363 27.639999
-13.220287 6.9231553 -2.0973387 27.639999
-25.334227 13.266943 -2.6680422 27.639999
-35.226925 18.447517 -2.7806325 27.639999
-4.0950155 2.1444638 -2.0580873 27.639999
-48.737755 25.522823 -2.5656288 27.639999
-4.350399 2.2782023 -2.0512209 27.639999
-4.660718 2.4407091 -2.0543981 27.639999
-5.0263624 2.6321883 -2.0651176 27.639999
-5.4619246 2.8602822 -2.0833213 27.639999
-5.9585581 3.1203578 -2.0988255 27.639999
-6.5757651 3.4435744 -2.1284716 27.639999
-7.2982178 3.8219061 -2.1566894 27.639999
-8.2132578 4.3010912 -2.1967685 27.639999
-9.2440491 4.8408928 -2.2180018 27.639999
-10.565152 5.5327229 -2.2470059 27.639999
-11.345336 5.9867787 -2.1075666 27.82
-13.193217 6.9618812 -2.0965035 27.82
-14.88204 7.8530498 -1.5698737 27.82
-35.12645 18.535748 -2.7772841 27.82
-4.0801787 2.1530547 -2.0540202 27.82
-48.775715 25.738281 -2.571871 27.82
-4.3481169 2.2944419 -2.0535336 27.82
-4.6596179 2.458817 -2.057308 27.82
-5.0230546 2.6505976 -2.0671697 27.82
-5.4562635 2.8791959 -2.0846019 27.82
-5.9521031 3.1408436 -2.1000168 27.82
-6.5598135 3.4615242 -2.1268179 27.82
-7.2810411 3.8421063 -2.1551697 27.82
-8.1945419 4.3241477 -2.1953852 27.82
-9.2270651 4.8689966 -2.217586 27.82
-10.544242 5.5640526 -2.2462652 27.82
-11.327522 6.0204148 -2.1075666 27.99
-13.170754 7.0000658 -2.0962253 27.99
-14.939718 7.9402447 -1.978511 27.99
-23.093369 12.273792 -2.4398997 27.99
-35.048393 18.627716 -2.7754705 27.99
-4.0721588 2.1642938 -2.0532067 27.99
-4.336401 2.3047347 -2.0512209 27.99
-4.6490121 2.4708827 -2.0558529 27.99
-5.0101895 2.6628435 -2.0651176 27.99
-5.4393311 2.8909259 -2.0814006 27.99
-5.9377003 3.155802 -2.0982296 27.99
-6.5512118 3.4818745 -2.1273692 27.99
-7.2679009 3.8627846 -2.1546633 27.99
-8.1833944 4.3493557 -2.1958463 27.99
-9.2056684 4.8926802 -2.2159228 27.99
-10.525951 5.5943913 -2.2458949 27.99
-11.30787 6.0530663 -2.1072423 28.16
-13.149926 7.0391135 -2.0962253 28.16
-14.868807 7.9592247 -1.9722389 28.16
-23.042805 12.33474 -2.4384134 28.16
-34.938442 18.702436 -2.7711456 28.16
-4.0673304 2.1772289 -2.0540202 28.16
-4.331171 2.3184619 -2.0519917 28.16
-4.6400175 2.4837866 -2.0551255 28.16
-5.0022664 2.6776972 -2.0651176 28.16
-5.4357409 2.9097347 -2.0833213 28.16
-5.9232607 3.1707025 -2.0964425 28.16
-6.5391569 3.5003896 -2.1268179 28.16
-7.2547021 3.8834188 -2.1541569 28.16
-8.1653061 4.370862 -2.194463 28.16
-9.1893864 4.9190488 -2.215507 28.16
-10.507573 5.62467 -2.2455246 28.16
-11.295072 6.0894003 -2.1082151 28.33
-13.123754 7.0752792 -2.0953903 28.33
-15.037466 8.1070004 -1.997792 28.33
-14.927238 8.047574 -1.5821354 28.33
-34.875771 18.802231 -2.7705877 28.33
-4.0640688 2.1910214 -2.0556469 28.33
-4.3210239 2.329551 -2.0504501 28.33
-4.6359076 2.499311 -2.0565803 28.33
-4.9942999 2.6925275 -2.0651176 28.33
-5.427084 2.9258499 -2.0833213 28.33
-5.9121466 3.1873572 -2.0958467 28.33
-6.5287423 3.5197763 -2.1268179 28.33
-7.2397418 3.9030905 -2.1531439 28.33
-8.1540146 4.3959932 -2.1949241 28.33
-9.1747513 4.9462929 -2.215507 28.33
-10.482188 5.6511583 -2.2436731 28.33
-11.27762 6.1257968 -2.1085393 28.51
-13.103201 7.1174192 -2.0956686 28.51
-15.96326 8.6709509 -2.1243963 28.51
-14.92813 8.1086874 -1.5849222 28.51
-34.856853 18.933605 -2.7737963 28.51
-4.0587711 2.2046502 -2.0564604 28.51
-4.313684 2.3431144 -2.0504501 28.51
-4.6231217 2.5111949 -2.0543981 28.51
-4.985816 2.7082043 -2.0651176 28.51
-5.4178653 2.9428852 -2.0833213 28.51
-5.9037819 3.2068262 -2.0964425 28.51
-6.5142736 3.5384343 -2.1257153 28.51
-7.2257438 3.9248919 -2.1526372 28.51
-8.1367435 4.4197302 -2.1940019 28.51
-9.1540089 4.9722905 -2.2142596 28.51
-10.460929 5.6821852 -2.2429326 28.51
-11.266739 6.1581402 -2.1095121 28.66
-13.074096 7.1459994 -2.0939984 28.66
-14.960891 8.1772785 -1.9938428 28.66
-23.044373 12.595523 -2.4501176 28.66
-34.775654 19.007572 -2.7712853 28.66
-4.043366 2.2100108 -2.0515797 28.66
-4.3075352 2.3543994 -2.0504501 28.66
-4.618166 2.5241833 -2.0551255 28.66
-4.9721127 2.7176423 -2.0623815 28.66
-5.406817 2.9552417 -2.0820408 28.66
-5.8920155 3.2204399 -2.0952508 28.66
-6.5033007 3.5545545 -2.125164 28.66
-7.2120485 3.9419396 -2.1516242 28.66
-8.1200218 4.4382167 -2.1926186 28.66
-9.1392441 4.9953003 -2.2138436 28.66
-10.440843 5.7067242 -2.2418215 28.66
-11.251442 6.1983252 -2.1104848 28.85
-13.053796 7.191227 -2.0945551 28.85
-23.037361 12.691089 -2.4538333 28.85
-34.649521 19.088131 -2.7662628 28.85
-4.0456171 2.2286966 -2.0564604 28.85
-4.2997041 2.3686707 -2.0504501 28.85
-4.6081386 2.5385847 -2.0543981 28.85
-4.9548426 2.7295811 -2.0589612 28.85
-5.3969874 2.973155 -2.0820408 28.85
-5.8796315 3.2390397 -2.0946553 28.85
-6.4847422 3.5723901 -2.1229589 28.85
-7.2006316 3.9667675 -2.1521308 28.85
-8.1035547 4.4641805 -2.1921575 28.85
-9.1192017 5.0236917 -2.213012 28.85
-10.420139 5.7403674 -2.2414513 28.85
-11.22955 6.2297664 -2.1098363 29.02
-13.03067 7.2289658 -2.0942769 29.02
-14.591334 8.0947685 -1.9513317 29.02
-23.027466 12.774843 -2.4568059 29.02
-34.61367 19.202469 -2.7679369 29.02
-4.0325956 2.2371449 -2.0532067 29.02
-4.2991118 2.3849988 -2.0535336 29.02
-4.6005859 2.5522463 -2.0543981 29.02
-4.9598694 2.7515643 -2.0644336 29.02
-5.3848281 2.9873166 -2.0807605 29.02
-5.8716645 3.2573967 -2.0952508 29.02
-6.4741139 3.5916147 -2.1229589 29.02
-7.178679 3.9824831 -2.1490917 29.02
-8.0851688 4.4853721 -2.1907742 29.02
-9.1008348 5.0488286 -2.2121804 29.02
-10.391031 5.764585 -2.2388592 29.02
-11.225428 6.2736797 -2.1127546 29.200001
-13.004437 7.2679343 -2.0937202 29.200001
-14.558896 8.136692 -1.9504025 29.200001
-23.020247 12.865582 -2.4603357 29.200001
-34.481766 19.271208 -2.7622168 29.200001
-4.0271425 2.250694 -2.0540202 29.200001
-4.2867651 2.3957922 -2.0512209 29.200001
-4.590919 2.565778 -2.0536704 29.200001
-4.946279 2.7643819 -2.0623815 29.200001
-5.3704548 3.0014458 -2.0788398 29.200001
-5.8564024 3.2730327 -2.0934637 29.200001
-6.4644771 3.612874 -2.1235101 29.200001
-7.1728878 4.0087914 -2.1511178 29.200001
-8.0744352 4.5126491 -2.1916964 29.200001
-9.0832205 5.0764403 -2.2117646 29.200001
-10.374586 5.7981601 -2.2392294 29.200001
-11.208965 6.3030462 -2.1127546 29.35
-12.985366 7.3019552 -2.0937202 29.35
-14.610267 8.2156725 -1.9601592 29.35
-23.012522 12.940445 -2.4631226 29.35
-34.401634 19.344791 -2.759845 29.35
-4.0244217 2.2630203 -2.0556469 29.35
-4.2804785 2.4070067 -2.0512209 29.35
-4.5841861 2.5777881 -2.0536704 29.35
-4.9373865 2.7764006 -2.0616975 29.35
-5.3642302 3.0164239 -2.0794799 29.35
-5.8478136 3.2883534 -2.0934637 29.35
-6.4516449 3.6279011 -2.1224077 29.35
-7.1522493 4.0218663 -2.1480787 29.35
-8.0592003 4.5318646 -2.1907742 29.35
