# .PCD v0.7 - Point Cloud Data file format
VERSION 0.7
FIELDS x y z intensity
SIZE 4 4 4 4
TYPE F F F F
COUNT 1 1 1 1
WIDTH 1137
HEIGHT 1
VIEWPOINT 0 0 0 1 0 0 0
POINTS 1137
DATA ascii
0.14187297 -10.034792 -2.1331739 269.19
0.16042794 -11.347199 -2.1381364 269.19
0.14666018 -13.129155 -2.1571755 269.35999
0.17275336 -15.465042 -2.1736054 269.35999
0.21203375 -18.981459 -2.2198722 269.35999
0.26742947 -23.940536 -2.2336795 269.35999
0.36942393 -33.071175 -2.3127062 269.35999
0.056337465 -5.0433822 -2.1067219 269.35999
0.060409971 -5.4079571 -2.1118686 269.35999
0.064824834 -5.8031797 -2.1123164 269.35999
0.069841817 -6.252305 -2.1127722 269.35999
0.075578056 -6.7658176 -2.1113362 269.35999
0.082547389 -7.389719 -2.1191001 269.35999
0.09063857 -8.114049 -2.1242731 269.35999
0.10062464 -9.0080118 -2.1345177 269.35999
0.11209857 -10.035169 -2.1331739 269.35999
0.12675947 -11.347626 -2.1381364 269.35999
0.1122539 -13.125547 -2.156527 269.51001
0.13231625 -15.471382 -2.1744406 269.51001
0.16245864 -18.995853 -2.2214983 269.51001
0.20468433 -23.933189 -2.2329364 269.51001
0.28221133 -32.998211 -2.3075442 269.51001
0.043149523 -5.0453577 -2.1074927 269.51001
0.046219915 -5.4043708 -2.1104138 269.51001
0.049631942 -5.8033295 -2.1123164 269.51001
0.05350551 -6.2562556 -2.1140525 269.51001
0.057897601 -6.7698107 -2.1125276 269.51001
0.063200884 -7.3899097 -2.1191001 269.51001
0.069412299 -8.1161928 -2.1247797 269.51001
0.077041402 -9.0082445 -2.1345177 269.51001
0.085842937 -10.037384 -2.1335897 269.51001
0.097118288 -11.35578 -2.1396177 269.51001
0.068758406 -13.131768 -2.1574998 269.70001
0.08096908 -15.463814 -2.1733272 269.70001
0.099392429 -18.982382 -2.2198722 269.70001
0.12539089 -23.947676 -2.2342367 269.70001
0.1726584 -32.975025 -2.3058701 269.70001
0.02638929 -5.039937 -2.1051803 269.70001
0.028298125 -5.4044943 -2.1104138 269.70001
0.030396974 -5.8053412 -2.1130004 269.70001
0.032748807 -6.2545037 -2.1134124 269.70001
0.035457779 -6.7718749 -2.1131234 269.70001
0.038704783 -7.3920012 -2.1196513 269.70001
0.042487517 -8.1144438 -2.1242731 269.70001
0.047209326 -9.0162344 -2.1363621 269.70001
0.052557301 -10.037613 -2.1335897 269.70001
0.059440047 -11.352109 -2.1388769 269.70001
0.032072902 -13.125988 -2.156527 269.85999
0.037800226 -15.469921 -2.1741621 269.85999
0.046378445 -18.980598 -2.2196398 269.85999
0.058535416 -23.955898 -2.2349799 269.85999
0.080681458 -33.019272 -2.3089392 269.85999
0.012315046 -5.0399909 -2.1051803 269.85999
0.013210391 -5.406415 -2.1111412 269.85999
0.014166936 -5.7978864 -2.1102643 269.85999
0.01528283 -6.254571 -2.1134124 269.85999
0.016551686 -6.7738566 -2.1137192 269.85999
0.0180529 -7.3882356 -2.1185486 269.85999
0.01982758 -8.1145315 -2.1242731 269.85999
0.022026341 -9.0143852 -2.135901 269.85999
0.024522047 -10.035765 -2.1331739 269.85999
0.027738787 -11.352231 -2.1388769 269.85999
-0.011459785 -13.131943 -2.1574998 270.04999
-0.013496635 -15.466001 -2.1736054 270.04999
-0.016568946 -18.986609 -2.2203367 270.04999
-0.020905524 -23.955959 -2.2349799 270.04999
-0.028757377 -32.953518 -2.3043354 270.04999
-0.0043998449 -5.0418496 -2.1059511 270.04999
-0.0047180005 -5.4064293 -2.1111412 270.04999
-0.0050645447 -5.8035393 -2.1123164 270.04999
-0.0054614656 -6.2583766 -2.1146929 270.04999
-0.0059096557 -6.771965 -2.1131234 270.04999
-0.0064491476 -7.3901772 -2.1191001 270.04999
-0.0070795962 -8.1126175 -2.1237667 270.04999
-0.0078665577 -9.0144081 -2.135901 270.04999
-0.0087595889 -10.037746 -2.1335897 270.04999
-0.009908434 -11.354225 -2.1392474 270.04999
-0.050400205 -13.125931 -2.156527 270.22
-0.05937745 -15.463912 -2.1733272 270.22
-0.072941326 -18.996408 -2.2214983 270.22
-0.091938213 -23.943844 -2.2338653 270.22
-0.12642491 -32.925358 -2.3023822 270.22
-0.019359272 -5.0418143 -2.1059511 270.22
-0.020752002 -5.4045286 -2.1104138 270.22
-0.022283945 -5.8034987 -2.1123164 270.22
-0.024023117 -6.2564383 -2.1140525 270.22
-0.026017087 -6.7757359 -2.114315 270.22
-0.028383566 -7.3920479 -2.1196513 270.22
-0.031172438 -8.1183653 -2.1252861 270.22
-0.034620244 -9.0162916 -2.1363621 270.22
-0.038542099 -10.037677 -2.1335897 270.22
-0.043589458 -11.35218 -2.1388769 270.22
-0.08937221 -13.12967 -2.1571755 270.39001
-0.10523251 -15.459707 -2.1727705 270.39001
-0.12931792 -18.998095 -2.2217305 270.39001
-0.16291276 -23.93351 -2.2329364 270.39001
-0.22455028 -32.988678 -2.3068466 270.39001
-0.034343652 -5.0454254 -2.1074927 270.39001
-0.036800127 -5.4063058 -2.1111412 270.39001
-0.039477564 -5.7996483 -2.1109483 270.39001
-0.042599108 -6.258234 -2.1146929 270.39001
-0.046081971 -6.7699018 -2.1125276 270.39001
-0.050316058 -7.3919311 -2.1196513 270.39001
-0.055273108 -8.1201715 -2.1257927 270.39001
-0.061345436 -9.0122566 -2.1354399 270.39001
-0.068324275 -10.037519 -2.1335897 270.39001
-0.077218302 -11.34414 -2.1373959 270.39001
-0.12825112 -13.121453 -2.1558785 270.56
-0.1510825 -15.457346 -2.172492 270.56
-0.18568575 -18.997627 -2.2217305 270.56
-0.23415764 -23.956816 -2.2351658 270.56
-0.32176554 -32.920036 -2.302103 270.56
-0.049277484 -5.0416107 -2.1059511 270.56
-0.052822564 -5.4043102 -2.1104138 270.56
-0.056740373 -5.8051438 -2.1130004 270.56
-0.061130408 -6.2542911 -2.1134124 270.56
-0.066187099 -6.7716441 -2.1131234 270.56
-0.072248101 -7.3917494 -2.1196513 270.56
-0.079328045 -8.1161022 -2.1247797 270.56
-0.087989926 -9.002305 -2.1331344 270.56
-0.098067604 -10.033359 -2.1327581 270.56
-0.11095349 -11.351723 -2.1388769 270.56
-0.16718264 -13.121016 -2.1558785 270.73001
-0.19694464 -15.45683 -2.172492 270.73001
-0.24202663 -18.995007 -2.2214983 270.73001
-0.30528855 -23.959999 -2.2355373 270.73001
-0.41984639 -32.950855 -2.3043354 270.73001
-0.064236008 -5.0414424 -2.1059511 270.73001
-0.068809748 -5.400404 -2.1089587 270.73001
-0.073892474 -5.7993121 -2.1109483 270.73001
-0.079711109 -6.2559767 -2.1140525 270.73001
-0.086327299 -6.7752361 -2.114315 270.73001
-0.094130531 -7.3876576 -2.1185486 270.73001
-0.10340862 -8.1158314 -2.1247797 270.73001
-0.11469988 -9.0020046 -2.1331344 270.73001
-0.1278367 -10.033024 -2.1327581 270.73001
-0.14460915 -11.349378 -2.1385067 270.73001
-0.20843397 -13.122398 -2.1562028 270.91
-0.24543974 -15.452174 -2.1719353 270.91
-0.30185765 -19.004084 -2.2226598 270.91
-0.38052785 -23.95693 -2.2353516 270.91
-0.52285534 -32.917458 -2.302103 270.91
-0.080191061 -5.0485964 -2.1090343 270.91
-0.085775249 -5.4001613 -2.1089587 270.91
-0.092111155 -5.7990513 -2.1109483 270.91
-0.099424601 -6.2594843 -2.1153331 270.91
-0.10755122 -6.7711134 -2.1131234 270.91
-0.11736957 -7.3892479 -2.1191001 270.91
-0.1289047 -8.1154661 -2.1247797 270.91
-0.14307262 -9.0074377 -2.1345177 270.91
-0.1593557 -10.032573 -2.1327581 270.91
-0.18029472 -11.350833 -2.1388769 270.91
-0.24278758 -13.121808 -2.1562028 271.06
-0.28589255 -15.451479 -2.1719353 271.06
-0.35135189 -18.989325 -2.2210336 271.06
-0.44320872 -23.953861 -2.2351658 271.06
-0.60903114 -32.915974 -2.302103 271.06
-0.09337382 -5.046524 -2.1082635 271.06
-0.10005039 -5.4073687 -2.1118686 271.06
-0.1072927 -5.7987905 -2.1109483 271.06
-0.11581153 -6.2592025 -2.1153331 271.06
-0.12524225 -6.7688999 -2.1125276 271.06
-0.13674971 -7.3908377 -2.1196513 271.06
-0.15018627 -8.1170359 -2.1252861 271.06
-0.16661751 -9.0050859 -2.1340566 271.06
-0.18558414 -10.030165 -2.1323423 271.06
-0.20979232 -11.338531 -2.1366551 271.06
-0.28621361 -13.116984 -2.1555543 271.25
-0.33721635 -15.454406 -2.172492 271.25
-0.41449416 -18.995998 -2.2219629 271.25
-0.52268362 -23.95425 -2.2353516 271.25
-0.7174412 -32.879864 -2.2997315 271.25
-0.10994715 -5.0388064 -2.1051803 271.25
-0.11781875 -5.3995571 -2.1089587 271.25
-0.12648059 -5.7965236 -2.1102643 271.25
-0.13644315 -6.2531013 -2.1134124 271.25
-0.14772969 -6.7703562 -2.1131234 271.25
-0.16125786 -7.3903432 -2.1196513 271.25
-0.17693368 -8.1087551 -2.1232603 271.25
-0.19647855 -9.0044842 -2.1340566 271.25
-0.21888703 -10.03145 -2.1327581 271.25
-0.24756259 -11.345634 -2.1381364 271.25
-0.32522899 -13.120024 -2.1562028 271.42001
-0.38306892 -15.453338 -2.172492 271.42001
-0.47085452 -18.994686 -2.2219629 271.42001
-0.59380424 -23.954584 -2.2355373 271.42001
-0.81479669 -32.869614 -2.2991734 271.42001
-0.12480562 -5.0347686 -2.1036384 271.42001
-0.13397752 -5.4047709 -2.1111412 271.42001
-0.14372522 -5.7980018 -2.1109483 271.42001
-0.15508977 -6.2564573 -2.1146929 271.42001
-0.16781707 -6.7698879 -2.1131234 271.42001
-0.18313707 -7.3879104 -2.1191001 271.42001
-0.20108792 -8.1120634 -2.1242731 271.42001
-0.22309802 -8.9999704 -2.1331344 271.42001
-0.24869841 -10.032712 -2.1331739 271.42001
-0.28122464 -11.344849 -2.1381364 271.42001
-0.36421016 -13.120974 -2.156527 271.59
-0.42897311 -15.454113 -2.1727705 271.59
-0.5271005 -18.989233 -2.2214983 271.59
-0.66471046 -23.946745 -2.2349799 271.59
-0.91265118 -32.879017 -2.3000104 271.59
-0.13984592 -5.0380654 -2.1051803 271.59
-0.14980641 -5.3969007 -2.1082313 271.59
-0.16097973 -5.7994285 -2.1116323 271.59
-0.17370491 -6.2578635 -2.1153331 271.59
-0.18784998 -6.7674518 -2.1125276 271.59
-0.20500326 -7.3854127 -2.1185486 271.59
-0.22520965 -8.1133652 -2.1247797 271.59
-0.25001645 -9.0070505 -2.1349788 271.59
-0.27841064 -10.029975 -2.1327581 271.59
-0.31477511 -11.340034 -2.1373959 271.59
-0.40066856 -13.113987 -2.1555543 271.75
-0.47206691 -15.450874 -2.172492 271.75
-0.58024764 -18.991659 -2.2219629 271.75
-0.73103237 -23.926882 -2.2333078 271.75
-1.0050724 -32.896282 -2.3014057 271.75
-0.15363249 -5.0284324 -2.101326 271.75
-0.16499059 -5.4001856 -2.1096864 271.75
-0.17705935 -5.7951994 -2.1102643 271.75
-0.19106373 -6.2535663 -2.1140525 271.75
-0.20674752 -6.766901 -2.1125276 271.75
-0.22580253 -7.3905764 -2.1202025 271.75
-0.24780646 -8.1107702 -2.1242731 271.75
-0.275049 -9.0024271 -2.1340566 271.75
-0.30641851 -10.029159 -2.1327581 271.75
-0.34632117 -11.335183 -2.1366551 271.75
-0.44159946 -13.104774 -2.1542573 271.92999
-0.52047145 -15.445356 -2.1719353 271.92999
-0.63970804 -18.983786 -2.221266 271.92999
-0.80720311 -23.954321 -2.2360947 271.92999
-0.16973977 -5.037147 -2.1051803 271.92999
-0.18208042 -5.4033642 -2.1111412 271.92999
-0.19532789 -5.7964926 -2.1109483 271.92999
-0.21070892 -6.2529354 -2.1140525 271.92999
-0.22794101 -6.7643099 -2.111932 271.92999
-0.24889006 -7.3859878 -2.1191001 271.92999
-0.27335107 -8.111886 -2.1247797 271.92999
-0.30346066 -9.0054083 -2.1349788 271.92999
-0.33799034 -10.030101 -2.1331739 271.92999
-0.38226089 -11.343861 -2.1385067 271.92999
-0.48076937 -13.111295 -2.1555543 272.10001
-0.5662238 -15.441765 -2.1716571 272.10001
-0.69581282 -18.975849 -2.2205691 272.10001
-0.87922198 -23.97769 -2.2385099 272.10001
-1.2021295 -32.783859 -2.2940114 272.10001
-0.18461689 -5.0347767 -2.1044092 272.10001
-0.1979069 -5.3972149 -2.1089587 272.10001
-0.21245669 -5.7940097 -2.1102643 272.10001
-0.2290525 -6.2466021 -2.1121318 272.10001
-0.24808004 -6.7655115 -2.1125276 272.10001
-0.27073315 -7.3832955 -2.1185486 272.10001
-0.2973474 -8.1091051 -2.1242731 272.10001
-0.32989362 -8.9966888 -2.1331344 272.10001
-0.36774874 -10.029055 -2.1331739 272.10001
-0.41584504 -11.340712 -2.1381364 272.10001
-0.51966918 -13.109811 -2.1555543 272.26999
-0.61211634 -15.441997 -2.1719353 272.26999
-0.75234818 -18.979656 -2.221266 272.26999
-0.94988799 -23.963037 -2.237395 272.26999
-1.3015294 -32.833973 -2.2977781 272.26999
-0.19970073 -5.0378952 -2.1059511 272.26999
-0.21414122 -5.4021888 -2.1111412 272.26999
-0.22979578 -5.7971096 -2.1116323 272.26999
-0.2477356 -6.2496815 -2.1134124 272.26999
-0.26800135 -6.7609305 -2.1113362 272.26999
-0.29279089 -7.3863015 -2.1196513 272.26999
-0.32140625 -8.1081877 -2.1242731 272.26999
-0.35635459 -8.9898367 -2.1317508 272.26999
-0.39765882 -10.031829 -2.1340055 272.26999
-0.44925818 -11.333537 -2.1370256 272.26999
-0.55848044 -13.106239 -2.15523 272.44
-0.65793091 -15.440112 -2.1719353 272.44
-0.8089968 -18.985279 -2.2221951 272.44
-1.02039 -23.946186 -2.2360947 272.44
-1.4037855 -32.943588 -2.3057306 272.44
-0.21472614 -5.039124 -2.1067219 272.44
-0.23016888 -5.4015293 -2.1111412 272.44
-0.24699511 -5.796402 -2.1116323 272.44
-0.26635835 -6.2508121 -2.1140525 272.44
-0.28814152 -6.762013 -2.111932 272.44
-0.31445965 -7.3796382 -2.1179974 272.44
-0.34546229 -8.1071987 -2.1242731 272.44
-0.38344061 -8.9984617 -2.1340566 272.44
-0.42692235 -10.018877 -2.1315107 272.44
-0.48305079 -11.336082 -2.1377661 272.44
-0.59983248 -13.108363 -2.1558785 272.62
-0.70670575 -15.443904 -2.1727705 272.62
-0.86845511 -18.978674 -2.2217305 272.62
-1.0962512 -23.956787 -2.237395 272.62
-1.5028961 -32.843349 -2.2990339 272.62
-0.2303872 -5.0347376 -2.1051803 272.62
-0.24713711 -5.4007797 -2.1111412 272.62
-0.26511788 -5.7937202 -2.1109483 272.62
-0.2859945 -6.2499442 -2.1140525 272.62
-0.30938354 -6.7610741 -2.111932 272.62
-0.33764187 -7.3786139 -2.1179974 272.62
-0.3710185 -8.1080055 -2.1247797 272.62
-0.41135234 -8.9894361 -2.1322122 272.62
-0.45848486 -10.019441 -2.1319265 272.62
-0.51839215 -11.328617 -2.1366551 272.62
-0.63862705 -13.104555 -2.1555543 272.79001
-0.75223631 -15.435805 -2.1719353 272.79001
-0.92485881 -18.977999 -2.2219629 272.79001
-1.1676183 -23.959396 -2.2379525 272.79001
-1.5988808 -32.808853 -2.2969413 272.79001
-0.2452347 -5.0321884 -2.1044092 272.79001
-0.26297909 -5.3963013 -2.1096864 272.79001
-0.28221554 -5.7910309 -2.1102643 272.79001
-0.30453715 -6.2490683 -2.1140525 272.79001
-0.3295356 -6.7620335 -2.1125276 272.79001
-0.35962671 -7.3794999 -2.1185486 272.79001
-0.39479125 -8.1010714 -2.1232603 272.79001
-0.43773851 -8.9823446 -2.1308286 272.79001
-0.48840153 -10.021944 -2.1327581 272.79001
-0.55200249 -11.327029 -2.1366551 272.79001
-0.67928171 -13.092629 -2.153933 272.97
-0.80103338 -15.4393 -2.1727705 272.97
-0.98437232 -18.973015 -2.2217305 272.97
-1.2424704 -23.947657 -2.2372093 272.97
-1.7020481 -32.80566 -2.2970808 272.97
-0.26132941 -5.0369225 -2.1067219 272.97
-0.27983421 -5.3935876 -2.1089587 272.97
-0.30050454 -5.7919927 -2.1109483 272.97
-0.32416764 -6.2480807 -2.1140525 272.97
-0.35057965 -6.7571516 -2.1113362 272.97
-0.3829079 -7.3802533 -2.1191001 272.97
-0.4206405 -8.1075201 -2.1252861 272.97
-0.46595517 -8.9809256 -2.1308286 272.97
-0.51978254 -10.018407 -2.1323423 272.97
-0.58768648 -11.327202 -2.1370256 272.97
-0.71616381 -13.096593 -2.1549058 273.13
-0.84414488 -15.437002 -2.1727705 273.13
-1.0377849 -18.978127 -2.2226598 273.13
-1.308905 -23.93614 -2.2364662 273.13
-1.7933252 -32.794804 -2.2966621 273.13
-0.27499107 -5.0288019 -2.1036384 273.13
-0.29509827 -5.3965058 -2.1104138 273.13
-0.31667763 -5.791131 -2.1109483 273.13
-0.34151083 -6.2452593 -2.1134124 273.13
-0.3694478 -6.7561464 -2.1113362 273.13
-0.40341097 -7.3772359 -2.1185486 273.13
-0.44275108 -8.0966539 -2.1227536 273.13
-0.4912453 -8.9834757 -2.1317508 273.13
-0.54765034 -10.014963 -2.1319265 273.13
-0.61931568 -11.325517 -2.1370256 273.13
-0.7576462 -13.100189 -2.1558785 273.31
-0.89195126 -15.422411 -2.1711004 273.31
-1.0970572 -18.968822 -2.2219629 273.31
-1.3853608 -23.953777 -2.2385099 273.31
-0.29110777 -5.0334406 -2.1059511 273.31
-0.31194285 -5.393692 -2.1096864 273.31
-0.3347609 -5.7882314 -2.1102643 273.31
-0.36112919 -6.2441554 -2.1134124 273.31
-0.39089146 -6.7587643 -2.1125276 273.31
-0.4265852 -7.3759317 -2.1185486 273.31
-0.4686321 -8.1029501 -2.1247797 273.31
-0.51991475 -8.9896593 -2.1335955 273.31
-0.57944942 -10.019053 -2.1331739 273.31
-0.65477926 -11.321553 -2.1366551 273.31
-0.79398692 -13.094083 -2.15523 273.47
-0.93573451 -15.431721 -2.1727705 273.47
-1.1503844 -18.971634 -2.2226598 273.47
-1.4523674 -23.951803 -2.2386956 273.47
-1.9893498 -32.80748 -2.2983363 273.47
-0.30471584 -5.0252395 -2.1028676 273.47
-0.32722917 -5.3965192 -2.1111412 273.47
-0.35103711 -5.7891498 -2.1109483 273.47
-0.37833536 -6.2393403 -2.1121318 273.47
-0.4093017 -6.7500234 -2.1101446 273.47
-0.44741371 -7.3785501 -2.1196513 273.47
-0.49114084 -8.099678 -2.1242731 273.47
-0.54442757 -8.9784594 -2.1312897 273.47
-0.60718876 -10.01349 -2.1323423 273.47
-0.68639237 -11.31968 -2.1366551 273.47
-0.83537048 -13.095463 -2.1558785 273.64999
-0.98420995 -15.428705 -2.1727705 273.64999
-1.2101063 -18.96991 -2.222892 273.64999
-1.5270998 -23.939173 -2.2379525 273.64999
-2.094821 -32.838902 -2.300987 273.64999
-0.32061905 -5.0260992 -2.1036384 273.64999
-0.3440626 -5.3936052 -2.1104138 273.64999
-0.36910287 -5.7861428 -2.1102643 273.64999
-0.39793494 -6.2381206 -2.1121318 273.64999
-0.43087012 -6.7544203 -2.111932 273.64999
-0.47046947 -7.3751893 -2.1191001 273.64999
-0.51670742 -8.1000261 -2.1247797 273.64999
-0.57399434 -8.9980688 -2.1363621 273.64999
-0.63864404 -10.011533 -2.1323423 273.64999
-0.72170049 -11.313545 -2.1359146 273.64999
-0.87435329 -13.094895 -2.1562028 273.82001
-1.0291917 -15.41386 -2.1711004 273.82001
-1.2663858 -18.966234 -2.222892 273.82001
-1.598918 -23.946459 -2.2390673 273.82001
-2.1907845 -32.810642 -2.2994523 273.82001
-0.3358992 -5.0306497 -2.1059511 273.82001
-0.36006421 -5.392561 -2.1104138 273.82001
-0.38664469 -5.7906475 -2.1123164 273.82001
-0.41682073 -6.2425842 -2.1140525 273.82001
-0.45090896 -6.7531123 -2.111932 273.82001
-0.49235001 -7.3737612 -2.1191001 273.82001
-0.54086727 -8.1003876 -2.1252861 273.82001
-0.59978199 -8.9827337 -2.1331344 273.82001
-0.66808534 -10.00569 -2.1315107 273.82001
-0.75605088 -11.323121 -2.1381364 273.82001
-0.91279072 -13.086338 -2.15523 273.98999
-1.07561 -15.420617 -2.172492 273.98999
-1.3229305 -18.966356 -2.2233567 273.98999
-1.6699613 -23.941608 -2.2390673 273.98999
-2.2890975 -32.817928 -2.3004291 273.98999
-0.35069555 -5.0277901 -2.1051803 273.98999
-0.37606263 -5.3914685 -2.1104138 273.98999
-0.40343183 -5.7838507 -2.1102643 273.98999
-0.43520916 -6.23943 -2.1134124 273.98999
-0.47107667 -6.7536492 -2.1125276 273.98999
-0.51449376 -7.3761034 -2.1202025 273.98999
-0.56489921 -8.0987473 -2.1252861 273.98999
-0.62588996 -8.9731493 -2.1312897 273.98999
-0.69776982 -10.003663 -2.1315107 273.98999
-0.78923362 -11.314946 -2.1370256 273.98999
-0.94933105 -13.083737 -2.15523 274.14999
-1.1182383 -15.411628 -2.1716571 274.14999
-1.3753144 -18.954664 -2.2224274 274.14999
-1.7358036 -23.922949 -2.2377667 274.14999
-2.3807335 -32.811409 -2.3004291 274.14999
-0.36446729 -5.0231099 -2.1036384 274.14999
-0.39111698 -5.3903975 -2.1104138 274.14999
-0.41971782 -5.7845759 -2.1109483 274.14999
-0.45290545 -6.2419696 -2.1146929 274.14999
-0.49007273 -6.7542114 -2.1131234 274.14999
-0.53508967 -7.3746381 -2.1202025 274.14999
-0.58709288 -8.0913496 -2.1237667 274.14999
-0.65193111 -8.9849529 -2.1345177 274.14999
-0.72598571 -10.005578 -2.1323423 274.14999
-0.82040107 -11.306817 -2.1359146 274.14999
-0.99256372 -13.078549 -2.1549058 274.34
-1.1691891 -15.40586 -2.1713786 274.34
-1.438764 -18.957922 -2.2233567 274.34
-1.8152761 -23.919046 -2.2379525 274.34
-2.488168 -32.785431 -2.2991734 274.34
-0.38126215 -5.0237141 -2.1044092 274.34
-0.40899003 -5.389071 -2.1104138 274.34
-0.43875563 -5.7812781 -2.1102643 274.34
-0.47360206 -6.2404337 -2.1146929 274.34
-0.51203436 -6.7468381 -2.1113362 274.34
-0.55939645 -7.3709059 -2.1196513 274.34
-0.61406797 -8.0912876 -2.1242731 274.34
-0.68113357 -8.9749794 -2.1326733 274.34
-0.7588653 -9.9992142 -2.1315107 274.34
-0.85804009 -11.305994 -2.1362848 274.34
-1.0292369 -13.077694 -2.15523 274.5
-1.2129828 -15.412407 -2.1727705 274.5
-1.4923222 -18.961752 -2.2242858 274.5
-1.8833134 -23.929766 -2.2394388 274.5
-2.5814342 -32.800232 -2.3007081 274.5
-0.39572391 -5.0281491 -2.1067219 274.5
-0.4241837 -5.3897648 -2.1111412 274.5
-0.45475081 -5.7781568 -2.1095803 274.5
-0.49102676 -6.2390866 -2.1146929 274.5
-0.53132248 -6.751092 -2.1131234 274.5
-0.57982683 -7.3673983 -2.1191001 274.5
-0.63635707 -8.0856829 -2.1232603 274.5
-0.70634645 -8.9749832 -2.1331344 274.5
-0.78693891 -9.9990063 -2.1319265 274.5
-0.88930058 -11.299635 -2.1355443 274.5
-1.0677133 -13.070649 -2.1545815 274.67001
-1.2588681 -15.410714 -2.1730487 274.67001
-1.5479293 -18.949322 -2.2233567 274.67001
-1.9534955 -23.914148 -2.2385099 274.67001
-2.6789055 -32.794418 -2.3008475 274.67001
-0.41079122 -5.0287919 -2.1074927 274.67001
-0.43987021 -5.384769 -2.1096864 274.67001
-0.47189292 -5.776782 -2.1095803 274.67001
-0.50938207 -6.235714 -2.1140525 274.67001
-0.55119556 -6.7475829 -2.1125276 274.67001
-0.60184026 -7.3675618 -2.1196513 274.67001
-0.66065997 -8.087616 -2.1242731 274.67001
-0.73313105 -8.9747868 -2.1335955 274.67001
-0.816603 -9.9966278 -2.1319265 274.67001
-0.92346334 -11.304782 -2.1370256 274.67001
-1.1071559 -13.07529 -2.1558785 274.84
-1.3027488 -15.385202 -2.169987 274.84
-1.6038109 -18.940685 -2.222892 274.84
-2.0239375 -23.902294 -2.2379525 274.84
-2.7756915 -32.780361 -2.3004291 274.84
-0.42555439 -5.025712 -2.1067219 274.84
-0.45600238 -5.3852968 -2.1104138 274.84
-0.48887229 -5.7734838 -2.1088963 274.84
-0.52772164 -6.2322869 -2.1134124 274.84
-0.57105249 -6.7440152 -2.111932 274.84
-0.62369758 -7.3657436 -2.1196513 274.84
-0.68449026 -8.0836926 -2.1237667 274.84
-0.75959235 -8.9706335 -2.1331344 274.84
-0.84609491 -9.9922113 -2.1315107 274.84
-0.95600623 -11.290242 -2.1348038 274.84
-1.1478822 -13.067815 -2.15523 275.01999
-1.3500365 -15.369197 -2.1683168 275.01999
-1.6633068 -18.935555 -2.222892 275.01999
-2.0988443 -23.893835 -2.2377667 275.01999
-2.8795331 -32.781418 -2.3011265 275.01999
-0.44150251 -5.0261889 -2.1074927 275.01999
-0.47291851 -5.3838377 -2.1104138 275.01999
-0.50766563 -5.7794085 -2.1116323 275.01999
-0.54779571 -6.2362609 -2.1153331 275.01999
-0.59273773 -6.7478938 -2.1137192 275.01999
-0.64683467 -7.3637481 -2.1196513 275.01999
-0.70954388 -8.0776472 -2.1227536 275.01999
-0.7882815 -8.9740191 -2.1345177 275.01999
-0.87765336 -9.9914532 -2.1319265 275.01999
-0.99198675 -11.293056 -2.1359146 275.01999
-1.1864716 -13.062387 -2.1549058 275.19
-1.3983192 -15.39471 -2.172492 275.19
-1.7198417 -18.934492 -2.2233567 275.19
-2.169189 -23.881554 -2.2372093 275.19
-2.973897 -32.740936 -2.2988944 275.19
-0.45607966 -5.0211811 -2.1059511 275.19
-0.48838499 -5.3768444 -2.1082313 275.19
-0.52447116 -5.7741332 -2.1102643 275.19
-0.56578243 -6.2289472 -2.1134124 275.19
-0.61206573 -6.7384996 -2.1113362 275.19
-0.66868043 -7.3617964 -2.1196513 275.19
-0.73350757 -8.0755062 -2.1227536 275.19
-0.81525654 -8.9755163 -2.1354399 275.19
-0.90729469 -9.9888048 -2.1319265 275.19
-1.0256673 -11.292021 -2.1362848 275.19
-1.2243015 -13.048984 -2.1532848 275.35999
-1.444175 -15.392465 -2.1727705 275.35999
-1.7749006 -18.917439 -2.2219629 275.35999
-2.2398512 -23.87303 -2.2370236 275.35999
-3.0741966 -32.765739 -2.301266 275.35999
-0.47183773 -5.0289927 -2.1098051 275.35999
-0.50485831 -5.3809361 -2.1104138 275.35999
-0.54212773 -5.7781653 -2.1123164 275.35999
-0.58443856 -6.2291274 -2.1140525 275.35999
-0.63223487 -6.738555 -2.111932 275.35999
-0.69087952 -7.3636084 -2.1207538 275.35999
-0.75764555 -8.0752211 -2.1232603 275.35999
-0.84024763 -8.9556198 -2.1312897 275.35999
-0.93656254 -9.982173 -2.1310949 275.35999
-1.0582489 -11.279144 -2.1344333 275.35999
-1.2662425 -13.054894 -2.1549058 275.54001
-1.4919511 -15.381938 -2.1719353 275.54001
-1.8337473 -18.905838 -2.221266 275.54001
-2.3159931 -23.877768 -2.2381382 275.54001
-3.175962 -32.744003 -2.3004291 275.54001
-0.4867436 -5.018301 -2.1059511 275.54001
-0.52158064 -5.3774695 -2.1096864 275.54001
-0.56027764 -5.7764335 -2.1123164 275.54001
-0.60400504 -6.2272606 -2.1140525 275.54001
-0.65340149 -6.7365355 -2.111932 275.54001
-0.71382397 -7.359488 -2.1202025 275.54001
-0.78282404 -8.0708752 -2.1227536 275.54001
-0.86931777 -8.9626207 -2.1335955 275.54001
-0.96829551 -9.9830761 -2.1319265 275.54001
-1.0950062 -11.289457 -2.1370256 275.54001
-1.3047752 -13.049116 -2.1545815 275.70999
-1.5375836 -15.377443 -2.1719353 275.70999
-1.8898338 -18.900314 -2.221266 275.70999
-2.3870275 -23.872772 -2.2383242 275.70999
-3.2764759 -32.768185 -2.3028007 275.70999
-0.50181466 -5.018671 -2.1067219 275.70999
-0.53753358 -5.3758984 -2.1096864 275.70999
-0.57666624 -5.7672653 -2.1095803 275.70999
-0.62304455 -6.2310972 -2.1159732 275.70999
-0.6737662 -6.7383666 -2.1131234 275.70999
-0.7356568 -7.3573375 -2.1202025 275.70999
-0.80695987 -8.0704422 -2.1232603 275.70999
-0.89571291 -8.958066 -2.1331344 275.70999
-0.99752229 -9.9762659 -2.1310949 275.70999
-1.1283023 -11.284203 -2.1366551 275.70999
-1.3440934 -13.051077 -2.1555543 275.88
-1.5838112 -15.378724 -2.1727705 275.88
-1.9469213 -18.904505 -2.2224274 275.88
-2.4562168 -23.849737 -2.2368379 275.88
-3.3720515 -32.742443 -2.3016846 275.88
-0.51727033 -5.0226674 -2.1090343 275.88
-0.55348182 -5.3742795 -2.1096864 275.88
-0.59377551 -5.7655292 -2.1095803 275.88
-0.64075339 -6.2216821 -2.1134124 275.88
-0.69277841 -6.7268419 -2.1101446 275.88
-0.75728625 -7.35321 -2.1196513 275.88
-0.83070356 -8.0660877 -2.1227536 275.88
-0.92208868 -8.953433 -2.1326733 275.88
-1.0269176 -9.9713163 -2.1306789 275.88
-1.1613755 -11.276896 -2.1359146 275.88
-1.385088 -13.04679 -2.1555543 276.06
-1.6316988 -15.369734 -2.1722138 276.06
-2.0065114 -18.90027 -2.2226598 276.06
-2.5328126 -23.857744 -2.2383242 276.06
-3.4782679 -32.763432 -2.3039169 276.06
-0.53324175 -5.0228529 -2.1098051 276.06
-0.5707562 -5.3762193 -2.1111412 276.06
-0.6124807 -5.7692418 -2.1116323 276.06
-0.66069627 -6.2234068 -2.1146929 276.06
-0.71471417 -6.7322264 -2.1125276 276.06
-0.78058624 -7.3527064 -2.1202025 276.06
-0.85644829 -8.0672865 -2.1237667 276.06
-0.95041758 -8.9524269 -2.1331344 276.06
-1.0582383 -9.9680414 -2.1306789 276.06
-1.1963822 -11.269282 -2.135174 276.06
-1.4210883 -13.038947 -2.1549058 276.22
-1.6746128 -15.365117 -2.1722138 276.22
-2.0588527 -18.890644 -2.2221951 276.22
-2.5996418 -23.852558 -2.2385099 276.22
-3.5628297 -32.690121 -2.2994523 276.22
-0.54646629 -5.0140057 -2.1067219 276.22
-0.58516169 -5.3690486 -2.1089587 276.22
-0.62858903 -5.767509 -2.1116323 276.22
-0.6774568 -6.2158866 -2.1127722 276.22
-0.73330444 -6.7283063 -2.111932 276.22
-0.80069917 -7.3466754 -2.1191001 276.22
-0.87855375 -8.0610161 -2.1227536 276.22
-0.97541374 -8.9497375 -2.1331344 276.22
-1.0862821 -9.9669914 -2.1310949 276.22
-1.2272084 -11.260036 -2.134063 276.22
-1.4629242 -13.042264 -2.1562028 276.39999
-1.7224339 -15.355844 -2.1716571 276.39999
-2.1168606 -18.872238 -2.2208014 276.39999
-2.672122 -23.822506 -2.2364662 276.39999
-3.6701813 -32.720406 -2.3023822 276.39999
-0.56303835 -5.0196004 -2.1098051 276.39999
-0.60223377 -5.3690352 -2.1096864 276.39999
-0.64607662 -5.759903 -2.1095803 276.39999
-0.69740367 -6.2174935 -2.1140525 276.39999
-0.75443834 -6.7259693 -2.111932 276.39999
-0.82441837 -7.3498554 -2.1207538 276.39999
-0.90430516 -8.0620623 -2.1237667 276.39999
-1.0033083 -8.9446955 -2.1326733 276.39999
-1.1171528 -9.9596415 -2.1302631 276.39999
-1.4991311 -13.016299 -2.1526363 276.57001
-1.7682146 -15.352633 -2.1719353 276.57001
-2.1737554 -18.873768 -2.2217305 276.57001
-2.7441602 -23.826342 -2.237581 276.57001
-3.770901 -32.741081 -2.3046143 276.57001
-0.5781405 -5.0197411 -2.1105762 276.57001
-0.61816138 -5.3672247 -2.1096864 276.57001
-0.66316372 -5.7579603 -2.1095803 276.57001
-0.71584821 -6.2153969 -2.1140525 276.57001
-0.7746098 -6.7255983 -2.1125276 276.57001
-0.84578222 -7.3435569 -2.1196513 276.57001
-0.92822176 -8.0593433 -2.1237667 276.57001
-1.0298433 -8.941679 -2.1326733 276.57001
-1.1469226 -9.9582272 -2.1306789 276.57001
-1.2959687 -11.25233 -2.134063 276.57001
-1.5382078 -13.015714 -2.1532848 276.73999
-1.8135264 -15.345352 -2.1716571 276.73999
-2.2290459 -18.861317 -2.2210336 276.73999
-2.814842 -23.818094 -2.237581 276.73999
-3.8633459 -32.690125 -2.3018241 276.73999
-0.59238201 -5.0125051 -2.1082635 276.73999
-0.63364619 -5.3616667 -2.1082313 276.73999
-0.68046558 -5.757834 -2.1102643 276.73999
-0.73473126 -6.2170091 -2.1153331 276.73999
-0.79411346 -6.7194781 -2.1113362 276.73999
-0.86756724 -7.3410153 -2.1196513 276.73999
-0.9519031 -8.0546322 -2.1232603 276.73999
-1.0568261 -8.9424496 -2.1335955 276.73999
-1.1760049 -9.9508944 -2.1298473 276.73999
-1.3295799 -11.250386 -2.1344333 276.73999
-1.5802791 -13.020613 -2.1549058 276.92001
-1.8619648 -15.341545 -2.1719353 276.92001
-2.2892468 -18.862108 -2.2219629 276.92001
-2.8882153 -23.797274 -2.2364662 276.92001
-3.9643428 -32.66396 -2.3008475 276.92001
-0.60857099 -5.0142837 -2.1098051 276.92001
-0.65093613 -5.3633485 -2.1096864 276.92001
-0.69787163 -5.7500706 -2.1082122 276.92001
-0.75425887 -6.2146702 -2.1153331 276.92001
-0.8152194 -6.7169504 -2.1113362 276.92001
-0.89201522 -7.3497047 -2.1229589 276.92001
-0.97743583 -8.0535231 -2.1237667 276.92001
-1.0844454 -8.9352217 -2.1326733 276.92001
-1.2077321 -9.9510345 -2.1306789 276.92001
-1.3661015 -11.25591 -2.1362848 276.92001
-1.6163901 -13.014191 -2.1545815 277.07999
-1.9050434 -15.338251 -2.1722138 277.07999
-2.3414209 -18.8517 -2.2214983 277.07999
-2.9561312 -23.800972 -2.237581 277.07999
-4.0587392 -32.678501 -2.3026612 277.07999
-0.62143379 -5.0034075 -2.1059511 277.07999
-0.66591084 -5.3615098 -2.1096864 277.07999
-0.71438938 -5.7518296 -2.1095803 277.07999
-0.77067643 -6.205018 -2.1127722 277.07999
-0.83397347 -6.7146478 -2.1113362 277.07999
-0.91064024 -7.3319221 -2.1185486 277.07999
-0.99992168 -8.0507622 -2.1237667 277.07999
-1.1091532 -8.9302273 -2.1322122 277.07999
-1.235516 -9.9476233 -2.1306789 277.07999
-1.3965596 -11.244249 -2.1348038 277.07999
-1.6577661 -13.012964 -2.15523 277.26001
-1.9534707 -15.334156 -2.172492 277.26001
-2.3988764 -18.830458 -2.2198722 277.26001
-3.0273662 -23.763912 -2.2349799 277.26001
-4.162642 -32.675484 -2.3033588 277.26001
-0.63784903 -5.0069227 -2.1082635 277.26001
-0.6825158 -5.357543 -2.1089587 277.26001
-0.73293078 -5.7532854 -2.1109483 277.26001
-0.79088455 -6.2082052 -2.1146929 277.26001
-0.85530525 -6.7138882 -2.111932 277.26001
-0.93512738 -7.3404679 -2.1218565 277.26001
-1.0249645 -8.0456619 -2.1232603 277.26001
-1.1381865 -8.9344206 -2.1340566 277.26001
-1.2665139 -9.9417524 -2.1302631 277.26001
-1.4318775 -11.239806 -2.1348038 277.26001
-1.6938437 -13.006327 -2.1549058 277.42001
-1.9957725 -15.324713 -2.1719353 277.42001
-2.4514515 -18.823685 -2.2198722 277.42001
-3.0950015 -23.76524 -2.235909 277.42001
-4.2595415 -32.70726 -2.306428 277.42001
-0.65182847 -5.0051217 -2.1082635 277.42001
-0.69747418 -5.3556166 -2.1089587 277.42001
-0.74947953 -5.7549434 -2.1123164 277.42001
-0.80797333 -6.2040935 -2.1140525 277.42001
-0.87454373 -6.71526 -2.1131234 277.42001
-0.9541325 -7.3263893 -2.1185486 277.42001
-1.0471783 -8.0408497 -2.1227536 277.42001
-1.1628803 -8.9292774 -2.1335955 277.42001
-1.2947768 -9.9420567 -2.1310949 277.42001
-1.4635131 -11.237713 -2.135174 277.42001
-1.7372264 -13.002595 -2.15523 277.60999
-2.0471046 -15.321937 -2.172492 277.60999
-2.5146489 -18.821358 -2.2205691 277.60999
-3.1730018 -23.748924 -2.2353516 277.60999
-4.3658652 -32.677135 -2.3053119 277.60999
-0.6686669 -5.0047622 -2.1090343 277.60999
-0.7159704 -5.3588138 -2.1111412 277.60999
-0.76781279 -5.7468381 -2.1102643 277.60999
-0.82854241 -6.2013803 -2.1140525 277.60999
-0.89655471 -6.7104306 -2.1125276 277.60999
-0.97867697 -7.3250904 -2.1191001 277.60999
-1.0740931 -8.0392504 -2.1232603 277.60999
-1.191969 -8.9215145 -2.1326733 277.60999
-1.3267025 -9.9299517 -2.1294315 277.60999
-1.5007707 -11.232798 -2.135174 277.60999
-1.7727292 -12.991826 -2.1542573 277.76999
-2.0893481 -15.312236 -2.1719353 277.76999
-2.568541 -18.824104 -2.2217305 277.76999
-3.2368858 -23.722212 -2.2336795 277.76999
-4.4595275 -32.682606 -2.3065677 277.76999
-0.68189168 -4.9973898 -2.1067219 277.76999
-0.73068035 -5.3549476 -2.1104138 277.76999
-0.7841121 -5.7465339 -2.1109483 277.76999
-0.84534436 -6.1952877 -2.1127722 277.76999
-0.91451585 -6.7022257 -2.1107404 277.76999
-0.99886876 -7.3204241 -2.1185486 277.76999
-1.0968003 -8.0381365 -2.1237667 277.76999
-1.2163516 -8.9142942 -2.1317508 277.76999
-1.3546914 -9.9281464 -2.1298473 277.76999
-1.5321326 -11.228563 -2.135174 277.76999
-1.8109962 -12.984554 -2.153933 277.94
-2.1355917 -15.311853 -2.1727705 277.94
-2.6235588 -18.810497 -2.2210336 277.94
-3.3061564 -23.704615 -2.2329364 277.94
-4.5584083 -32.683064 -2.3075442 277.94
-0.69748098 -5.0008278 -2.1090343 277.94
-0.74733758 -5.3582916 -2.1125963 277.94
-0.80141854 -5.7460432 -2.1116323 277.94
-0.86424583 -6.1965051 -2.1140525 277.94
-0.93466145 -6.7013741 -2.1113362 277.94
-1.0221779 -7.3288527 -2.1218565 277.94
-1.1203778 -8.0329304 -2.1232603 277.94
-1.2425267 -8.9087191 -2.1312897 277.94
-1.384413 -9.9260216 -2.1302631 277.94
-1.5654416 -11.223968 -2.135174 277.94
-1.8520582 -12.980755 -2.1542573 278.12
-2.1839645 -15.30703 -2.1730487 278.12
-2.6829212 -18.804129 -2.221266 278.12
-3.3808916 -23.696083 -2.2331221 278.12
-4.6768436 -32.779186 -2.315357 278.12
-0.71318811 -4.9986119 -2.1090343 278.12
-0.76337802 -5.3503842 -2.1104138 278.12
-0.81840444 -5.7360549 -2.1088963 278.12
-0.88290554 -6.1881323 -2.1121318 278.12
-0.95624912 -6.7021847 -2.1125276 278.12
-1.0438393 -7.3160892 -2.1191001 278.12
-1.1453352 -8.0274563 -2.1227536 278.12
-1.2713327 -8.9105511 -2.1326733 278.12
-1.4161423 -9.9254961 -2.1310949 278.12
-1.6001399 -11.215103 -2.1344333 278.12
-1.8874474 -12.969673 -2.1532848 278.28
-2.2272718 -15.30479 -2.1736054 278.28
-2.7354217 -18.796564 -2.221266 278.28
-3.4438956 -23.664873 -2.2310784 278.28
-4.7425032 -32.58831 -2.3028007 278.28
-0.72740984 -4.9984269 -2.1098051 278.28
-0.7780478 -5.3463879 -2.1096864 278.28
-0.83468997 -5.7356071 -2.1095803 278.28
-0.90045547 -6.1875176 -2.1127722 278.28
-0.97468644 -6.6975989 -2.111932 278.28
-1.0639887 -7.3112431 -2.1185486 278.28
-1.1677476 -8.0242262 -2.1227536 278.28
-1.2953699 -8.9011889 -2.1312897 278.28
-1.4430088 -9.9156952 -2.1298473 278.28
-1.6325842 -11.21837 -2.1359146 278.28
-1.9321901 -12.975056 -2.15523 278.47
-2.2765534 -15.287526 -2.1722138 278.47
-2.797153 -18.783461 -2.2208014 278.47
-3.525872 -23.676958 -2.2333078 278.47
-4.8837509 -32.795395 -2.3185656 278.47
-0.74370939 -4.9941621 -2.1090343 278.47
-0.79604721 -5.3456211 -2.1104138 278.47
-0.85425895 -5.7365255 -2.1109483 278.47
-0.92152727 -6.1882458 -2.1140525 278.47
-0.99660993 -6.6924415 -2.1113362 278.47
-1.0899268 -7.3190837 -2.1218565 278.47
-1.1940655 -8.0183964 -2.1222472 278.47
-1.3243068 -8.8929939 -2.1303675 278.47
-1.4753062 -9.9069853 -2.1290157 278.47
-1.6683292 -11.203175 -2.134063 278.47
-1.9678234 -12.965707 -2.1545815 278.63
-2.3186409 -15.277193 -2.1716571 278.63
-2.8478069 -18.763792 -2.2194076 278.63
-3.5886898 -23.645363 -2.2312644 278.63
-4.9552555 -32.649467 -2.3092184 278.63
-0.75903738 -5.0011888 -2.1128886 278.63
-0.81097186 -5.3433776 -2.1104138 278.63
-0.87027502 -5.7341175 -2.1109483 278.63
-0.93880445 -6.1856484 -2.1140525 278.63
-1.0152948 -6.6896324 -2.1113362 278.63
-1.1086304 -7.3046074 -2.1185486 278.63
-1.2167426 -8.016943 -2.1227536 278.63
-1.3500117 -8.8950338 -2.1317508 278.63
-1.5038465 -9.9086294 -2.1302631 278.63
-1.7013773 -11.210132 -2.1362848 278.63
-2.0056808 -12.955911 -2.153933 278.79999
-2.365777 -15.281989 -2.1733272 278.79999
-2.9025559 -18.749371 -2.2187107 278.79999
-3.6582217 -23.630674 -2.2308927 278.79999
-5.0627894 -32.703629 -2.3141012 278.79999
-0.77387285 -4.9989147 -2.1128886 278.79999
-0.82625234 -5.3372655 -2.1089587 278.79999
-0.88785964 -5.7352247 -2.1123164 278.79999
-0.95686364 -6.180963 -2.1134124 278.79999
-1.0357231 -6.6903639 -2.1125276 278.79999
-1.1320635 -7.312685 -2.1218565 278.79999
-1.2396361 -8.0075617 -2.1212342 278.79999
-1.3761001 -8.8890657 -2.1312897 278.79999
-1.5332394 -9.9041243 -2.1302631 278.79999
-1.7325262 -11.191438 -2.1336927 278.79999
-2.0418527 -12.950259 -2.153933 278.95999
-2.4087515 -15.27728 -2.1736054 278.95999
-2.9561403 -18.749041 -2.2196398 278.95999
-3.7198546 -23.592829 -2.2282917 278.95999
-5.1643496 -32.754398 -2.3187051 278.95999
-0.78667974 -4.9894423 -2.1098051 278.95999
-0.84231418 -5.3422985 -2.1118686 278.95999
-0.90328652 -5.7290101 -2.1109483 278.95999
-0.97412038 -6.178267 -2.1134124 278.95999
-1.0538073 -6.6836739 -2.1113362 278.95999
-1.1509827 -7.2999997 -2.1191001 278.95999
-1.2644032 -8.0193586 -2.1252861 278.95999
-1.4015238 -8.8890333 -2.1322122 278.95999
-1.5605862 -9.897871 -2.1298473 278.95999
-1.7640778 -11.188498 -2.134063 278.95999
-2.0854137 -12.947313 -2.1545815 279.14999
-2.4584546 -15.263342 -2.1727705 279.14999
-3.0173504 -18.733252 -2.2189429 279.14999
-3.8015542 -23.60199 -2.2303355 279.14999
-5.2811875 -32.788307 -2.3223326 279.14999
-0.80292749 -4.9849839 -2.1090343 279.14999
-0.86002529 -5.3394761 -2.1118686 279.14999
-0.92168194 -5.7222719 -2.1095803 279.14999
-0.99369901 -6.1693907 -2.1114917 279.14999
-1.076269 -6.6820273 -2.111932 279.14999
-1.1767128 -7.3056331 -2.1218565 279.14999
-1.2897587 -8.0074806 -2.1232603 279.14999
-1.4316121 -8.8881788 -2.1331344 279.14999
-1.5937113 -9.8945732 -2.1302631 279.14999
-1.8017956 -11.186467 -2.1348038 279.14999
-2.1209228 -12.937545 -2.153933 279.31
-2.5017092 -15.260326 -2.1733272 279.31
-3.0674021 -18.711031 -2.2173169 279.31
-3.8639047 -23.569664 -2.2282917 279.31
-5.3843484 -32.844311 -2.3273549 279.31
-0.8165465 -4.9809012 -2.1082635 279.31
-0.87432975 -5.3333764 -2.1104138 279.31
-0.93765795 -5.719676 -2.1095803 279.31
-1.0121493 -6.1740708 -2.1140525 279.31
-1.0955422 -6.6827641 -2.1131234 279.31
-1.1974202 -7.3042159 -2.1224077 279.31
-1.3118018 -8.0019379 -2.1227536 279.31
-1.4561121 -8.882226 -2.1326733 279.31
-1.6219689 -9.8939447 -2.1310949 279.31
-1.8342988 -11.18915 -2.1362848 279.31
-2.1592999 -12.931194 -2.153933 279.48001
-2.5466502 -15.250883 -2.1730487 279.48001
-3.1271586 -18.727318 -2.2203367 279.48001
-3.9318523 -23.546312 -2.2271771 279.48001
-5.4853902 -32.849838 -2.3288896 279.48001
-0.83192945 -4.9820971 -2.1098051 279.48001
-0.88922977 -5.3252463 -2.1082313 279.48001
-0.95462441 -5.7168689 -2.1095803 279.48001
-1.0307758 -6.1729093 -2.1146929 279.48001
-1.11568 -6.6813669 -2.1137192 279.48001
-1.2184538 -7.2968383 -2.121305 279.48001
-1.3368129 -8.0056448 -2.1247797 279.48001
-1.4814982 -8.8721085 -2.1312897 279.48001
-1.6493844 -9.877512 -2.1285999 279.48001
-1.8665185 -11.177842 -2.135174 279.48001
-2.1973271 -12.922785 -2.153609 279.64999
-2.5912251 -15.239355 -2.172492 279.64999
-3.1820438 -18.714041 -2.2198722 279.64999
-4.0030336 -23.542395 -2.2279201 279.64999
-5.5932012 -32.89439 -2.3332145 279.64999
-0.84608924 -4.9759679 -2.1082635 279.64999
-0.90627533 -5.3299308 -2.1111412 279.64999
-0.97221255 -5.7177167 -2.1109483 279.64999
-1.0484514 -6.1660881 -2.1134124 279.64999
-1.1345389 -6.6723809 -2.111932 279.64999
-1.2388095 -7.2856097 -2.1191001 279.64999
-1.3595872 -7.9959207 -2.1232603 279.64999
-1.5074896 -8.8657551 -2.1308286 279.64999
-1.67934 -9.8764315 -2.1294315 279.64999
-1.900005 -11.174193 -2.1355443 279.64999
-2.2382512 -12.917763 -2.153933 279.82999
-2.638412 -15.227236 -2.1719353 279.82999
-3.2374284 -18.684378 -2.2175491 279.82999
-4.0783343 -23.537552 -2.2286632 279.82999
-5.7053699 -32.927769 -2.3368418 279.82999
-0.92174309 -5.319715 -2.1082313 279.82999
-0.98984957 -5.7127824 -2.1102643 279.82999
-1.068141 -6.1646309 -2.1140525 279.82999
-1.1551692 -6.6669025 -2.1113362 279.82999
-1.2633328 -7.2911534 -2.1218565 279.82999
-1.385361 -7.9954224 -2.1242731 279.82999
-1.5359992 -8.86481 -2.1317508 279.82999
-1.7106935 -9.8730345 -2.1298473 279.82999
-1.9351003 -11.168169 -2.1355443 279.82999
-2.2762265 -12.909122 -2.153609 280
-2.6842682 -15.223242 -2.172492 280
-3.291127 -18.664909 -2.2163875 280
-4.1491909 -23.531231 -2.2292206 280
-0.93719941 -5.3151221 -2.1075039 280
-1.0067954 -5.7098203 -2.1102643 280
-1.0860981 -6.1595683 -2.1134124 280
-1.1756083 -6.6672058 -2.1125276 280
-1.2829574 -7.2760134 -2.1185486 280
-1.4077338 -7.9836555 -2.1222472 280
-1.561281 -8.8544645 -2.1303675 280
-1.73964 -9.8659887 -2.1294315 280
-1.9682285 -11.162378 -2.1355443 280
-2.314867 -12.904254 -2.153933 280.17001
-2.729075 -15.213261 -2.1722138 280.17001
-3.3485968 -18.666794 -2.2177815 280.17001
-4.2189908 -23.518816 -2.2292206 280.17001
-5.9284959 -33.04847 -2.3478634 280.17001
-0.95395237 -5.3178191 -2.1096864 280.17001
-1.0243959 -5.7105079 -2.1116323 280.17001
-1.1047037 -6.1581836 -2.1140525 280.17001
-1.1953851 -6.6636887 -2.1125276 280.17001
-1.3045402 -7.2721744 -2.1185486 280.17001
-1.4317572 -7.9813476 -2.1227536 280.17001
-1.588233 -8.8536243 -2.1312897 280.17001
-1.7689053 -9.8607836 -2.1294315 280.17001
-2.0016861 -11.158423 -2.1359146 280.17001
-2.3564591 -12.902741 -2.1549058 280.35001
-2.7764995 -15.202663 -2.1719353 280.35001
-3.4057963 -18.648365 -2.2168522 280.35001
-4.2914257 -23.49761 -2.2284775 280.35001
-6.0441198 -33.094452 -2.3524673 280.35001
-0.97098875 -5.3166285 -2.1104138 280.35001
-1.0406427 -5.6980171 -2.1082122 280.35001
-1.1240447 -6.1546826 -2.1140525 280.35001
-1.2159708 -6.6580219 -2.111932 280.35001
-1.3273798 -7.2680402 -2.1185486 280.35001
-1.4575194 -7.980617 -2.1237667 280.35001
-1.6167389 -8.8524199 -2.1322122 280.35001
-1.7998751 -9.8551779 -2.1294315 280.35001
-2.0363784 -11.150146 -2.1355443 280.35001
-2.3943715 -12.893753 -2.1545815 280.51999
-2.8219559 -15.196306 -2.1722138 280.51999
-3.4614747 -18.640131 -2.2170846 280.51999
-4.3629432 -23.494562 -2.2294064 280.51999
-6.133544 -33.029293 -2.3491189 280.51999
-0.98743951 -5.3173876 -2.1118686 280.51999
-1.0585738 -5.700448 -2.1102643 280.51999
-1.1426469 -6.1531835 -2.1146929 280.51999
-1.2353716 -6.6525078 -2.1113362 280.51999
-1.3510448 -7.2754111 -2.1218565 280.51999
-1.4801322 -7.9705505 -2.1222472 280.51999
-1.6433527 -8.8494968 -2.1326733 280.51999
-1.829108 -9.8497944 -2.1294315 280.51999
-2.0701702 -11.147921 -2.1362848 280.51999
-2.4300025 -12.885077 -2.1542573 280.67999
-2.8640139 -15.18642 -2.1719353 280.67999
-3.5109372 -18.616728 -2.2154584 280.67999
-4.426321 -23.470547 -2.2282917 280.67999
-6.2557044 -33.170841 -2.3604195 280.67999
-1.0012488 -5.3091173 -2.1096864 280.67999
-1.0748367 -5.6993165 -2.1109483 280.67999
-1.1594743 -6.1481066 -2.1140525 280.67999
-1.253944 -6.6490321 -2.1113362 280.67999
-1.3717126 -7.273499 -2.1224077 280.67999
-1.5023844 -7.9663863 -2.1222472 280.67999
-1.6680588 -8.8448734 -2.1326733 280.67999
-1.8573318 -9.8484926 -2.1302631 280.67999
-2.1012928 -11.142096 -2.1362848 280.67999
-2.4730897 -12.878886 -2.1545815 280.87
-2.9162257 -15.186564 -2.1733272 280.87
-3.5734024 -18.608885 -2.2159231 280.87
-4.504128 -23.455738 -2.2282917 280.87
-6.376956 -33.208694 -2.3646049 280.87
-1.0192003 -5.3075972 -2.1104138 280.87
-1.0923127 -5.6883383 -2.1082122 280.87
-1.1798557 -6.144228 -2.1140525 280.87
-1.2770662 -6.6504622 -2.1131234 280.87
-1.394012 -7.2594705 -2.1196513 280.87
-1.5298883 -7.9670606 -2.1237667 280.87
-1.6970131 -8.8373823 -2.1322122 280.87
-1.8896115 -9.8403587 -2.1298473 280.87
-2.1389711 -11.138927 -2.1370256 280.87
-2.5086672 -12.869992 -2.1542573 281.03
-2.9567285 -15.168642 -2.1719353 281.03
-3.624974 -18.596884 -2.2156906 281.03
-4.5703731 -23.44698 -2.2286632 281.03
-6.4708123 -33.196632 -2.3650234 281.03
-1.0343744 -5.3065591 -2.1111412 281.03
-1.109272 -5.6907997 -2.1102643 281.03
-1.1988215 -6.150208 -2.1172538 281.03
-1.2952676 -6.6449962 -2.1125276 281.03
-1.4131753 -7.2498879 -2.1179974 281.03
-1.5510199 -7.9570599 -2.1222472 281.03
-1.7209405 -8.8287888 -2.1312897 281.03
-1.9167092 -9.8331232 -2.1294315 281.03
-2.1711967 -11.138698 -2.1381364 281.03
-2.5510054 -12.871727 -2.1558785 281.20999
-3.0043676 -15.159278 -2.1719353 281.20999
-3.6810629 -18.573711 -2.2142968 281.20999
-4.6362686 -23.393438 -2.2249477 281.20999
-6.5971785 -33.287693 -2.3729758 281.20999
-1.050316 -5.2996283 -2.1096864 281.20999
-1.1264139 -5.6835995 -2.1088963 281.20999
-1.2170321 -6.1408358 -2.1153331 281.20999
-1.3150235 -6.6352758 -2.1107404 281.20999
-1.436692 -7.2491846 -2.1191001 281.20999
-1.5763862 -7.9540458 -2.1227536 281.20999
-1.7486684 -8.8233385 -2.1312897 281.20999
-1.9475914 -9.8270531 -2.1294315 281.20999
-2.2046509 -11.12411 -2.1366551 281.20999
-2.585861 -12.87081 -2.1568513 281.35999
-3.0428736 -15.145535 -2.1711004 281.35999
-3.7304585 -18.567905 -2.2147615 281.35999
-4.693182 -23.359743 -2.222904 281.35999
-6.7000222 -33.348549 -2.3785563 281.35999
-1.0649207 -5.3005133 -2.1111412 281.35999
-1.1412897 -5.6806312 -2.1088963 281.35999
-1.233851 -6.1413436 -2.1166136 281.35999
-1.3338944 -6.6392975 -2.1131234 281.35999
-1.454908 -7.2416286 -2.1179974 281.35999
-1.5968233 -7.9479947 -2.1222472 281.35999
-1.7725285 -8.822546 -2.1322122 281.35999
-1.9740825 -9.825757 -2.1302631 281.35999
-2.2341533 -11.120227 -2.1370256 281.35999
-2.6277375 -12.858296 -2.1562028 281.54999
-3.0926847 -15.133421 -2.1708221 281.54999
-3.7916138 -18.553488 -2.2145293 281.54999
-4.7857709 -23.418192 -2.2299638 281.54999
-6.8045812 -33.296829 -2.3764637 281.54999
-1.0817459 -5.2933025 -2.1096864 281.54999
-1.1608737 -5.6804981 -2.1102643 281.54999
-1.2542096 -6.1372185 -2.1166136 281.54999
-1.3551391 -6.6310964 -2.111932 281.54999
-1.4777594 -7.2311134 -2.1163437 281.54999
-1.6227837 -7.9407601 -2.1217406 281.54999
-1.8013858 -8.8147125 -2.1317508 281.54999
-2.006655 -9.8191566 -2.1302631 281.54999
-2.2714105 -11.114682 -2.1373959 281.54999
-2.6644354 -12.854774 -2.1568513 281.70999
-3.1345313 -15.122787 -2.1705437 281.70999
-3.84341 -18.542826 -2.2145293 281.70999
-4.8576145 -23.435934 -2.2329364 281.70999
-6.925477 -33.412495 -2.38609 281.70999
-1.0976577 -5.2957335 -2.1118686 281.70999
-1.1778764 -5.682755 -2.1123164 281.70999
-1.270574 -6.1299815 -2.1153331 281.70999
-1.3736514 -6.6272864 -2.111932 281.70999
-1.4987271 -7.2307234 -2.1174462 281.70999
-1.6457375 -7.9399867 -2.1227536 281.70999
-1.8267839 -8.8134594 -2.1326733 281.70999
-2.0344644 -9.8154297 -2.1306789 281.70999
-2.3020406 -11.106372 -2.1370256 281.70999
-2.7062349 -12.842005 -2.1562028 281.89999
-3.1842546 -15.110371 -2.1702654 281.89999
-3.9016023 -18.514429 -2.2126708 281.89999
-4.9307876 -23.398262 -2.2308927 281.89999
-1.1148287 -5.2902417 -2.1111412 281.89999
-1.1967145 -5.6788177 -2.1123164 281.89999
-1.2924575 -6.1331506 -2.1178939 281.89999
-1.3944396 -6.6170902 -2.1101446 281.89999
-1.5223002 -7.2238326 -2.116895 281.89999
-1.6720583 -7.9344854 -2.1227536 281.89999
-1.8535926 -8.795927 -2.1299064 281.89999
-2.0670025 -9.808629 -2.1306789 281.89999
-2.3388581 -11.098677 -2.1370256 281.89999
-2.7410817 -12.840666 -2.1571755 282.04999
-3.2246294 -15.105857 -2.1708221 282.04999
-3.9508889 -18.508038 -2.2131355 282.04999
-5.0111504 -23.474857 -2.2394388 282.04999
-1.1282858 -5.2854829 -2.1104138 282.04999
-1.2088311 -5.6627994 -2.1075282 282.04999
-1.3085096 -6.129746 -2.1178939 282.04999
-1.4129541 -6.6190186 -2.111932 282.04999
-1.541207 -7.2198224 -2.116895 282.04999
-1.6928251 -7.9300809 -2.1227536 282.04999
-1.8790516 -8.8024635 -2.1326733 282.04999
-2.0930827 -9.8050976 -2.1310949 282.04999
-2.367496 -11.090593 -2.1366551 282.04999
-2.7819743 -12.823791 -2.1558785 282.23999
-3.2734449 -15.089273 -2.169987 282.23999
-4.0130844 -18.498716 -2.2135999 282.23999
-5.0923457 -23.47368 -2.2409251 282.23999
-1.1462018 -5.2835331 -2.1111412 282.23999
-1.2287983 -5.6642694 -2.1095803 282.23999
-1.3276243 -6.1198177 -2.1159732 282.23999
-1.4348958 -6.6142964 -2.111932 282.23999
-1.5679934 -7.2278237 -2.1207538 282.23999
-1.7174721 -7.9168606 -2.1207275 282.23999
-1.9069935 -8.7904787 -2.1312897 282.23999
-2.125586 -9.7981024 -2.1310949 282.23999
-2.4046774 -11.084602 -2.1370256 282.23999
-2.820435 -12.817408 -2.1562028 282.41
-3.3186269 -15.081429 -2.1702654 282.41
-4.0696611 -18.494488 -2.2145293 282.41
-5.1735258 -23.510977 -2.2459412 282.41
-7.3738933 -33.510502 -2.3993437 282.41
-1.1618733 -5.2801089 -2.1111412 282.41
-1.2451953 -5.6587634 -2.1088963 282.41
-1.3433331 -6.1047487 -2.1121318 282.41
-1.455335 -6.613739 -2.1131234 282.41
-1.5898451 -7.2250171 -2.121305 282.41
-1.7417859 -7.9155092 -2.1217406 282.41
-1.9326488 -8.7828808 -2.1308286 282.41
-2.1546481 -9.7917528 -2.1310949 282.41
-2.4379778 -11.079338 -2.1373959 282.41
-2.8567333 -12.801278 -2.1549058 282.57999
-3.3646536 -15.077315 -2.1711004 282.57999
-4.124517 -18.482332 -2.2145293 282.57999
