# .PCD v0.7 - Point Cloud Data file format
VERSION 0.7
FIELDS x y z intensity
SIZE 4 4 4 4
TYPE F F F F
COUNT 1 1 1 1
WIDTH 1155
HEIGHT 1
VIEWPOINT 0 0 0 1 0 0 0
POINTS 1155
DATA ascii
-12.273373 -32.844101 -2.4518006 290.48999
-1.6622217 -4.4481807 -2.114217 290.48999
-14.989391 -40.112289 -1.9969383 290.48999
-1.7719753 -4.7418861 -2.1144302 290.48999
-1.8983574 -5.0800905 -2.1176884 290.48999
-2.0407045 -5.4610176 -2.1218929 290.48999
-2.1999929 -5.8872805 -2.123656 290.48999
-2.3851886 -6.3828726 -2.12623 290.48999
-2.6050575 -6.9712515 -2.1339843 290.48999
-2.8628004 -7.6609831 -2.1409879 290.48999
-3.1758766 -8.4987898 -2.1497345 290.48999
-3.5396752 -9.472331 -2.1493912 290.48999
-4.0013103 -10.707687 -2.1536891 290.48999
-4.6555829 -12.340179 -2.1669028 290.67001
-5.5655313 -14.752108 -2.215914 290.67001
-6.9810648 -18.504147 -2.3127928 290.67001
-9.1308985 -24.202539 -2.4133325 290.67001
-12.382833 -32.822182 -2.4530561 290.67001
-1.6736081 -4.4360986 -2.1109631 290.67001
-18.851503 -49.968163 -2.4905362 290.67001
-1.7888179 -4.7414761 -2.1167428 290.67001
-1.9182533 -5.0845599 -2.1220534 290.67001
-2.0545337 -5.4457874 -2.1184728 290.67001
-2.2211528 -5.8874311 -2.1262171 290.67001
-2.4059031 -6.3771343 -2.1268256 290.67001
-2.627624 -6.9648318 -2.1345358 290.67001
-2.8861709 -7.6501412 -2.1404812 290.67001
-3.2018738 -8.4869499 -2.1492734 290.67001
-3.5707972 -9.4648247 -2.1502228 290.67001
-4.0321546 -10.687708 -2.1522079 290.67001
-4.6900702 -12.320779 -2.16593 290.84
-5.6149139 -14.750337 -2.2181408 290.84
-7.043004 -18.501917 -2.3151157 290.84
-9.2253389 -24.234896 -2.4192777 290.84
-12.481583 -32.789024 -2.4533353 290.84
-1.6906629 -4.4413586 -2.115844 290.84
-19.018867 -49.962421 -2.4930518 290.84
-1.8028783 -4.7361474 -2.1167428 290.84
-1.9320054 -5.0753636 -2.1205986 290.84
-2.0720198 -5.4431806 -2.1198409 290.84
-2.236589 -5.8755026 -2.1242964 290.84
-2.4261723 -6.3735366 -2.1280172 290.84
-2.6475935 -6.9552083 -2.1339843 290.84
-2.9081683 -7.6397362 -2.1399748 290.84
-3.2263486 -8.4755936 -2.1488123 290.84
-3.5988641 -9.4541883 -2.1502228 290.84
-4.0645471 -10.677534 -2.1525784 290.84
-4.7372484 -12.328091 -2.169821 291.01999
-5.6661987 -14.745565 -2.2200892 291.01999
-7.1075072 -18.496389 -2.3172064 291.01999
-9.318572 -24.250406 -2.4237363 291.01999
-12.583816 -32.747787 -2.4531956 291.01999
-1.7026414 -4.4309087 -2.1134036 291.01999
-19.15567 -49.850208 -2.4904432 291.01999
-1.8184104 -4.732183 -2.1175137 291.01999
-1.9445994 -5.0605741 -2.116961 291.01999
-2.0884356 -5.4348898 -2.1191568 291.01999
-2.2557161 -5.8702159 -2.1249366 291.01999
-2.443444 -6.3587542 -2.1256342 291.01999
-2.6701205 -6.9486508 -2.1345358 291.01999
-2.9314609 -7.628756 -2.1394682 291.01999
-3.2522614 -8.4635992 -2.1483512 291.01999
-3.6292491 -9.4446621 -2.1506386 291.01999
-4.0952516 -10.657374 -2.1510971 291.01999
-4.7787995 -12.326861 -2.1720908 291.19
-5.7127881 -14.736075 -2.2212026 291.19
-7.1702542 -18.495592 -2.3197618 291.19
-9.4041595 -24.257927 -2.4272664 291.19
-12.674434 -32.693565 -2.4519401 291.19
-1.7151202 -4.4241338 -2.1125901 291.19
-19.379318 -49.988743 -2.5002258 291.19
-1.8297747 -4.7198839 -2.1144302 291.19
-1.9596058 -5.0547819 -2.116961 291.19
-2.104552 -5.4286695 -2.1191568 291.19
-2.2731235 -5.8634973 -2.1249366 291.19
-2.4609199 -6.3479161 -2.1244426 291.19
-2.6914208 -6.9424906 -2.135087 291.19
-2.9533834 -7.6182208 -2.1389618 291.19
-3.2780626 -8.4557266 -2.1488123 291.19
-3.6537204 -9.4247322 -2.1485593 291.19
-4.1296964 -10.652507 -2.1525784 291.19
-4.8160777 -12.320821 -2.1733875 291.35001
-5.759685 -14.734821 -2.2234294 291.35001
-7.2305541 -18.4977 -2.3225493 291.35001
-9.4783888 -24.248264 -2.4289384 291.35001
-12.770766 -32.671051 -2.4529166 291.35001
-1.7268028 -4.4176254 -2.1117766 291.35001
-19.590845 -50.118645 -2.5094492 291.35001
-1.842948 -4.714756 -2.1144302 291.35001
-1.9764268 -5.0562305 -2.1198709 291.35001
-2.1190193 -5.421021 -2.1184728 291.35001
-2.2901783 -5.858891 -2.1255767 291.35001
-2.4800272 -6.3445759 -2.1256342 291.35001
-2.7093973 -6.9313664 -2.1339843 291.35001
-2.9746461 -7.6099434 -2.1389618 291.35001
-3.3009541 -8.4447269 -2.1483512 291.35001
-3.6807373 -9.4163141 -2.1489751 291.35001
-4.1594276 -10.640933 -2.1525784 291.35001
-4.8605552 -12.320316 -2.1759815 291.53
-5.8095818 -14.725866 -2.2248211 291.53
-7.2944622 -18.489676 -2.3244078 291.53
-9.5808287 -24.285053 -2.4356265 291.53
-12.887255 -32.666031 -2.4555674 291.53
-1.7433548 -4.4189773 -2.1150305 291.53
-1.858428 -4.7106595 -2.1152012 291.53
-1.9888831 -5.0413313 -2.1162336 291.53
-2.1381087 -5.4195819 -2.1205249 291.53
-2.3085732 -5.8516674 -2.1255767 291.53
-2.4985456 -6.3332009 -2.1244426 291.53
-2.7311594 -6.9228206 -2.1339843 291.53
-2.9985387 -7.6005607 -2.1389618 291.53
-3.3260391 -8.4306946 -2.147429 291.53
-3.7095833 -9.4028845 -2.1485593 291.53
-4.1942787 -10.63147 -2.1533189 291.53
-4.8898354 -12.293859 -2.1737118 291.69
-5.8565369 -14.724308 -2.2270479 291.69
-7.3475351 -18.472925 -2.3248725 291.69
-9.6633272 -24.295212 -2.4393423 291.69
-12.968839 -32.605816 -2.4537537 291.69
-1.7523117 -4.4056029 -2.1109631 291.69
-1.8708932 -4.7037368 -2.1144302 291.69
-2.0050189 -5.0409513 -2.1184161 291.69
-2.1553185 -5.418829 -2.122577 291.69
-2.3263056 -5.8487191 -2.1268573 291.69
-2.5176327 -6.3297472 -2.1256342 291.69
-2.7526126 -6.9205256 -2.1356382 291.69
-3.0190365 -7.5903597 -2.1384552 291.69
-3.3495691 -8.4213734 -2.147429 291.69
-3.7351036 -9.3906708 -2.1481435 291.69
-4.2210455 -10.612411 -2.1518376 291.69
-4.9284334 -12.278436 -2.1737118 291.87
-5.908668 -14.72054 -2.2292747 291.87
-7.4158926 -18.475559 -2.3281245 291.87
-9.7574081 -24.309086 -2.4438009 291.87
-13.083843 -32.59639 -2.4561255 291.87
-1.7654631 -4.3983808 -2.1101496 291.87
-1.8870361 -4.701261 -2.115972 291.87
-2.0208457 -5.0346274 -2.1184161 291.87
-2.1709313 -5.4085426 -2.1212089 291.87
-2.3411396 -5.8325901 -2.123656 291.87
-2.5389283 -6.3253503 -2.1268256 291.87
-2.772192 -6.9064918 -2.1339843 291.87
-3.0421467 -7.5790424 -2.1379488 291.87
-3.3752842 -8.4090033 -2.1469679 291.87
-3.7660441 -9.3825216 -2.1489751 291.87
-4.2550969 -10.600921 -2.1522079 291.87
-4.9751325 -12.283013 -2.1772785 292.04999
-5.9600892 -14.714755 -2.2312231 292.04999
-7.4858308 -18.48163 -2.3318415 292.04999
-9.8486805 -24.315228 -2.4475167 292.04999
-13.171203 -32.518139 -2.4533353 292.04999
-1.7799582 -4.394506 -2.1109631 292.04999
-1.8997178 -4.6901784 -2.1136594 292.04999
-2.0380514 -5.0317073 -2.1198709 292.04999
-2.1886177 -5.4034376 -2.1218929 292.04999
-2.3601627 -5.8269625 -2.1242964 292.04999
-2.5544868 -6.3067255 -2.1232512 292.04999
-2.7945974 -6.8995304 -2.1345358 292.04999
-3.068121 -7.5748277 -2.1394682 292.04999
-3.4024158 -8.4001617 -2.147429 292.04999
-3.7940328 -9.3670177 -2.1481435 292.04999
-4.2905931 -10.592966 -2.1533189 292.04999
-5.0152864 -12.277332 -2.1788998 292.22
-6.0082164 -14.708007 -2.2328932 292.22
-7.5421362 -18.463015 -2.3323059 292.22
-9.9350901 -24.320925 -2.4510467 292.22
-13.258574 -32.456753 -2.4516611 292.22
-1.7929891 -4.3892055 -2.1109631 292.22
-1.9171149 -4.6930633 -2.1175137 292.22
-2.0501535 -5.0187397 -2.116961 292.22
-2.2025082 -5.3917007 -2.1198409 292.22
-2.3788743 -5.8234425 -2.1255767 292.22
-2.5731881 -6.2991185 -2.1232512 292.22
-2.8136024 -6.8876486 -2.1334331 292.22
-3.0876558 -7.5585265 -2.1374424 292.22
-3.4273245 -8.390029 -2.147429 292.22
-3.8195891 -9.3502865 -2.1468961 292.22
-4.3197742 -10.574731 -2.1522079 292.22
-5.0562024 -12.273347 -2.1808453 292.39001
-6.0571103 -14.702934 -2.2348416 292.39001
-7.6082335 -18.468107 -2.3357906 292.39001
-10.015552 -24.311592 -2.4530902 292.39001
-13.346457 -32.39698 -2.4501264 292.39001
-1.8073962 -4.3872452 -2.1125901 292.39001
-1.9296252 -4.6839418 -2.115972 292.39001
-2.0650353 -5.0126343 -2.116961 292.39001
-2.2177801 -5.3834043 -2.1191568 292.39001
-2.3946989 -5.8128548 -2.1242964 292.39001
-2.5940483 -6.2967515 -2.1250384 292.39001
-2.8340261 -6.8792701 -2.1334331 292.39001
-3.1100688 -7.5493321 -2.1374424 292.39001
-3.452203 -8.3798237 -2.147429 292.39001
-3.84657 -9.3371029 -2.1464803 292.39001
-4.3518796 -10.563684 -2.1525784 292.39001
-5.0941105 -12.261935 -2.1814938 292.56
-6.1067867 -14.69953 -2.2370684 292.56
-7.6744275 -18.472969 -2.3392751 292.56
-10.109033 -24.33326 -2.4582922 292.56
-13.437164 -32.344341 -2.4491498 292.56
-1.8211063 -4.3835502 -2.1134036 292.56
-1.9442222 -4.6799002 -2.1167428 292.56
-2.0806139 -5.0082059 -2.1176884 292.56
-2.2344642 -5.3785357 -2.1198409 292.56
-2.4141161 -5.8109732 -2.1262171 292.56
-2.6127195 -6.2890272 -2.1250384 292.56
-2.8544247 -6.8708315 -2.1334331 292.56
-3.1369081 -7.5507913 -2.1404812 292.56
-3.477798 -8.3713408 -2.1478901 292.56
-3.8750072 -9.3274555 -2.1468961 292.56
-4.3839574 -10.552541 -2.1529486 292.56
-5.13657 -12.261329 -2.1840875 292.73001
-6.1572614 -14.697785 -2.2395735 292.73001
-7.7376471 -18.47027 -2.3418305 292.73001
-10.202731 -24.354586 -2.4634941 292.73001
-13.553116 -32.352173 -2.4527771 292.73001
-1.8326926 -4.3747573 -2.1117766 292.73001
-1.9552468 -4.6673021 -2.1136594 292.73001
-2.0954642 -5.0020103 -2.1176884 292.73001
-2.2511389 -5.3736157 -2.1205249 292.73001
-2.4284186 -5.7967944 -2.123656 292.73001
-2.6291549 -6.2759647 -2.1232512 292.73001
-2.8740554 -6.8605585 -2.1328819 292.73001
-3.1548123 -7.5307436 -2.1374424 292.73001
-3.5033727 -8.3627796 -2.1483512 292.73001
-3.9026651 -9.315917 -2.1468961 292.73001
-4.4114513 -10.530423 -2.1510971 292.73001
-5.1752315 -12.251489 -2.1850603 292.89999
-6.2062383 -14.692224 -2.2415221 292.89999
-7.8001451 -18.46553 -2.3441534 292.89999
-10.278047 -24.331545 -2.4642372 292.89999
-13.638954 -32.287926 -2.4509635 292.89999
-1.8477976 -4.3743496 -2.114217 292.89999
-1.9705226 -4.6648803 -2.1152012 292.89999
-2.1095715 -4.9940548 -2.116961 292.89999
-2.2663414 -5.3651819 -2.1198409 292.89999
-2.4463446 -5.7913089 -2.1242964 292.89999
-2.6485074 -6.2698951 -2.123847 292.89999
-2.8951466 -6.8537717 -2.1334331 292.89999
-3.1771426 -7.5213499 -2.1374424 292.89999
-3.5258982 -8.3469706 -2.1469679 292.89999
-3.9295278 -9.302495 -2.1464803 292.89999
-4.4419112 -10.515477 -2.1507268 292.89999
-5.214653 -12.243342 -2.1863573 293.07001
-6.2544599 -14.684677 -2.243192 293.07001
-7.8603482 -18.455099 -2.3457794 293.07001
-10.379847 -24.370562 -2.471297 293.07001
-13.740949 -32.262001 -2.4520795 293.07001
-1.8586205 -4.3638048 -2.1117766 293.07001
-1.9814622 -4.6522217 -2.1121178 293.07001
-2.1229198 -4.9843459 -2.1155062 293.07001
-2.2829866 -5.3601627 -2.1205249 293.07001
-2.463517 -5.7840252 -2.1242964 293.07001
-2.6663506 -6.2602525 -2.1232512 293.07001
-2.9139626 -6.8416142 -2.1323307 293.07001
-3.1979287 -7.5083299 -2.1364293 293.07001
-3.5506487 -8.3364725 -2.1469679 293.07001
-3.9540451 -9.2835951 -2.1448171 293.07001
-4.4738622 -10.50406 -2.1510971 293.07001
-5.256207 -12.234153 -2.1876543 293.25
-6.305253 -14.675874 -2.2448621 293.25
-7.9269133 -18.45039 -2.3483348 293.25
-10.472865 -24.376255 -2.4751985 293.25
-13.85011 -32.237003 -2.4534748 293.25
-1.8730419 -4.359623 -2.1125901 293.25
-1.9975249 -4.6493649 -2.1136594 293.25
-2.1415095 -4.9844985 -2.1184161 293.25
-2.2983313 -5.3495107 -2.1191568 293.25
-2.4809279 -5.7745161 -2.123656 293.25
-2.6875119 -6.2553535 -2.1244426 293.25
-2.9369597 -6.8359585 -2.1334331 293.25
-3.2222645 -7.5000238 -2.1369357 293.25
-3.5737481 -8.3181238 -2.1451235 293.25
-3.987052 -9.2801151 -2.1468961 293.25
-4.5052876 -10.486341 -2.1503565 293.25
-5.2971897 -12.229369 -2.1895998 293.42001
-6.3495564 -14.658918 -2.2451406 293.42001
-7.9910965 -18.448664 -2.3511224 293.42001
-10.565724 -24.392584 -2.4800289 293.42001
-13.948871 -32.203091 -2.4540327 293.42001
-1.8859689 -4.3540463 -2.1125901 293.42001
-2.0105774 -4.6417241 -2.1128886 293.42001
-2.155549 -4.9764132 -2.1176884 293.42001
-2.3156874 -5.346117 -2.1205249 293.42001
-2.4995565 -5.770607 -2.1249366 293.42001
-2.7053013 -6.2456002 -2.123847 293.42001
-2.9557011 -6.8236861 -2.1323307 293.42001
-3.2429655 -7.4868793 -2.1359227 293.42001
-3.5999599 -8.3110552 -2.1460457 293.42001
-4.0145688 -9.2682438 -2.1468961 293.42001
-4.5379438 -10.476534 -2.1510971 293.42001
-5.3403239 -12.223518 -2.191545 293.60001
-6.4074712 -14.666122 -2.2493157 293.60001
-8.0569677 -18.441671 -2.3534455 293.60001
-10.647087 -24.370218 -2.4811435 293.60001
-14.048373 -32.155457 -2.4537537 293.60001
-1.8989067 -4.3464255 -2.1117766 293.60001
-2.0273664 -4.6404581 -2.1152012 293.60001
-2.1726639 -4.973031 -2.1191435 293.60001
-2.3317187 -5.3370934 -2.1198409 293.60001
-2.5169146 -5.7609897 -2.1242964 293.60001
-2.722616 -6.2318215 -2.1220596 293.60001
-2.9794328 -6.8196521 -2.1339843 293.60001
-3.26647 -7.4766545 -2.1359227 293.60001
-3.6252728 -8.2979212 -2.1455846 293.60001
-4.0421 -9.2520008 -2.1460645 293.60001
-4.5739818 -10.469431 -2.1525784 293.60001
-5.378159 -12.211231 -2.1921935 293.76999
-6.4573445 -14.661547 -2.2515423 293.76999
-8.1420755 -18.486767 -2.362273 293.76999
-10.729782 -24.362213 -2.4835587 293.76999
-14.159801 -32.15015 -2.4565439 293.76999
-1.9103216 -4.3374281 -2.1101496 293.76999
-2.0396383 -4.6310449 -2.1136594 293.76999
-2.1874096 -4.9665627 -2.1191435 293.76999
-2.347544 -5.3301516 -2.1198409 293.76999
-2.5332329 -5.7517624 -2.123656 293.76999
-2.7426331 -6.2272105 -2.1232512 293.76999
-2.998879 -6.8090224 -2.1334331 293.76999
-3.2886393 -7.4669299 -2.1359227 293.76999
-3.6506617 -8.2889099 -2.1460457 293.76999
-4.0703216 -9.2417574 -2.1464803 293.76999
-4.6018562 -10.448618 -2.1510971 293.76999
-5.4178419 -12.208793 -2.1944633 293.92999
-6.5054922 -14.65975 -2.2540476 293.92999
-8.1856108 -18.445801 -2.3599498 293.92999
-10.81635 -24.374018 -2.4878318 293.92999
-14.241433 -32.092247 -2.4551489 293.92999
-1.9239087 -4.3354168 -2.1117766 293.92999
-2.0533111 -4.627018 -2.1144302 293.92999
-2.2005146 -4.9587321 -2.1184161 293.92999
-2.3616571 -5.3218575 -2.1191568 293.92999
-2.5485165 -5.7429342 -2.1230159 293.92999
-2.7600121 -6.2195272 -2.1232512 293.92999
-3.0194414 -6.8041363 -2.1345358 293.92999
-3.309478 -7.4577169 -2.1359227 293.92999
-3.6706369 -8.2715673 -2.144201 293.92999
-4.0945268 -9.226779 -2.1456487 293.92999
-4.6270304 -10.426744 -2.1492455 293.92999
-5.4610071 -12.20252 -2.1964087 294.10999
-6.557178 -14.651894 -2.255996 294.10999
-8.2297249 -18.38917 -2.3560007 294.10999
-10.905885 -24.368999 -2.4908044 294.10999
-14.385379 -32.143864 -2.462543 294.10999
-1.9382657 -4.3310189 -2.1125901 294.10999
-2.0670834 -4.6188598 -2.1136594 294.10999
-2.2168431 -4.953495 -2.1191435 294.10999
-2.3783646 -5.3144116 -2.1191568 294.10999
-2.5680938 -5.7383585 -2.1242964 294.10999
-2.7842171 -6.221282 -2.1268256 294.10999
-3.0384462 -6.7893524 -2.1328819 294.10999
-3.3328907 -7.4472833 -2.1359227 294.10999
-3.6989894 -8.2653236 -2.1455846 294.10999
-4.1242924 -9.2156553 -2.1460645 294.10999
-4.6613698 -10.415745 -2.149986 294.10999
-5.4929342 -12.188181 -2.1964087 294.26001
-6.6012106 -14.647317 -2.2579443 294.26001
-8.2941637 -18.403782 -2.3606467 294.26001
-11.005647 -24.420246 -2.4989789 294.26001
-14.489975 -32.151566 -2.4660308 294.26001
-1.951099 -4.3292613 -2.114217 294.26001
-2.0814433 -4.6184797 -2.115972 294.26001
-2.2298036 -4.9476743 -2.1191435 294.26001
-2.3922694 -5.308167 -2.1191568 294.26001
-2.5831079 -5.7316155 -2.1242964 294.26001
-2.7981415 -6.2087498 -2.1250384 294.26001
-3.0554204 -6.7796216 -2.1323307 294.26001
-3.3523762 -7.4385324 -2.1359227 294.26001
-3.7206154 -8.2556114 -2.1455846 294.26001
-4.1467972 -9.2012596 -2.1452329 294.26001
-4.697505 -10.423216 -2.1540594 294.26001
-5.5419831 -12.183305 -2.1990027 294.45999
-6.6596794 -14.640409 -2.2604494 294.45999
-8.3739815 -18.409073 -2.3650606 294.45999
-11.115558 -24.43606 -2.5045524 294.45999
-14.563291 -32.015434 -2.4594738 294.45999
-1.964686 -4.319098 -2.1125901 294.45999
-2.0967879 -4.6095061 -2.1152012 294.45999
-2.2470608 -4.9398608 -2.1191435 294.45999
-2.4092274 -5.2963629 -2.1177888 294.45999
-2.6030993 -5.7225637 -2.1242964 294.45999
-2.8174255 -6.1937308 -2.1232512 294.45999
-3.0774748 -6.7654147 -2.131228 294.45999
-3.3783212 -7.426785 -2.1359227 294.45999
-3.7453811 -8.233717 -2.1432788 294.45999
-4.1797004 -9.188509 -2.1456487 294.45999
-4.7322326 -10.403177 -2.1533189 294.45999
-5.5792723 -12.174957 -2.2002997 294.62
-6.7030125 -14.627157 -2.2612846 294.62
-8.4361153 -18.409094 -2.3680804 294.62
-11.215278 -24.473717 -2.5116122 294.62
-14.596118 -31.851307 -2.4499869 294.62
-1.9775007 -4.3152556 -2.1134036 294.62
-2.1096518 -4.6036329 -2.1152012 294.62
-2.2608466 -4.9335666 -2.1191435 294.62
-2.4255743 -5.2930312 -2.1191568 294.62
-2.6167014 -5.7101045 -2.1223757 294.62
-2.8339152 -6.1841035 -2.1226554 294.62
-3.0963554 -6.7567945 -2.131228 294.62
-3.3990476 -7.4173222 -2.1359227 294.62
-3.7683594 -8.2232256 -2.1432788 294.62
-4.2037129 -9.1732445 -2.1448171 294.62
-4.7645402 -10.397069 -2.1548002 294.62
-5.6232882 -12.16991 -2.2025692 294.79999
-6.7547469 -14.618612 -2.2632329 294.79999
-8.5030727 -18.402336 -2.3706357 294.79999
-11.305473 -24.467285 -2.5145848 294.79999
-14.616608 -31.633238 -2.4367332 294.79999
-1.9895149 -4.3057046 -2.1117766 294.79999
-2.1233301 -4.5953074 -2.1144302 294.79999
-2.2755532 -4.9247484 -2.1184161 294.79999
-2.4437673 -5.2887974 -2.1205249 294.79999
-2.6362169 -5.705296 -2.123656 294.79999
-2.8565323 -6.1821022 -2.1250384 294.79999
-3.1159544 -6.7435431 -2.1301255 294.79999
-3.4215214 -7.4048505 -2.1354163 294.79999
-3.7958074 -8.21488 -2.144201 294.79999
-4.232511 -9.1599932 -2.1448171 294.79999
-4.8037753 -10.396322 -2.1577625 294.79999
-5.6618714 -12.15854 -2.203542 294.97
-6.8022718 -14.607483 -2.2646246 294.97
-8.5676985 -18.398634 -2.3734233 294.97
-11.362047 -24.399334 -2.5110548 294.97
-14.755039 -31.685589 -2.4441273 294.97
-2.0022814 -4.2997828 -2.1117766 294.97
-2.1369553 -4.5889869 -2.1144302 294.97
-2.2893689 -4.916286 -2.1176884 294.97
-2.4578621 -5.2781157 -2.1191568 294.97
-2.6523333 -5.6957312 -2.1230159 294.97
-2.8764744 -6.1770611 -2.12623 294.97
-3.142442 -6.7482109 -2.1345358 294.97
-3.4434769 -7.3946662 -2.1354163 294.97
-3.8193431 -8.2018166 -2.1437399 294.97
-4.2588444 -9.1456213 -2.1444011 294.97
-4.8304524 -10.373115 -2.155911 294.97
-5.6999927 -12.151615 -2.2051632 295.13
-6.8506069 -14.604568 -2.2671299 295.13
-8.6283236 -18.394421 -2.3759787 295.13
-11.403922 -24.311623 -2.5052955 295.13
-14.934123 -31.837534 -2.4590552 295.13
-2.0142808 -4.2941747 -2.1117766 295.13
-2.1497619 -4.5830016 -2.1144302 295.13
-2.3030887 -4.909874 -2.1176884 295.13
-2.4725916 -5.2712317 -2.1191568 295.13
-2.6690331 -5.6900177 -2.123656 295.13
-2.8888481 -6.1586337 -2.1226554 295.13
-3.1604576 -6.737669 -2.1339843 295.13
-3.4632916 -7.3832698 -2.1349096 295.13
-3.8397524 -8.1858339 -2.1423566 295.13
-4.2843676 -9.1336927 -2.1444011 295.13
-4.8577313 -10.356027 -2.1551704 295.13
-5.7470102 -12.146917 -2.2077572 295.32001
-6.905776 -14.596092 -2.2693565 295.32001
-8.7011681 -18.390844 -2.379231 295.32001
-11.483628 -24.271872 -2.5051098 295.32001
-15.000368 -31.704876 -2.4526377 295.32001
-2.0300727 -4.2907748 -2.1134036 295.32001
-2.1673155 -4.580852 -2.1167428 295.32001
-2.3185611 -4.9005256 -2.116961 295.32001
-2.4924693 -5.2680998 -2.1212089 295.32001
-2.6878872 -5.6811357 -2.123656 295.32001
-2.9092548 -6.1490197 -2.1226554 295.32001
-3.1811388 -6.7236757 -2.1328819 295.32001
-3.4869289 -7.3699956 -2.1344032 295.32001
-3.8668766 -8.1730556 -2.1423566 295.32001
-4.3146324 -9.1194344 -2.1444011 295.32001
-4.8962493 -10.348744 -2.157022 295.32001
-5.7800593 -12.12904 -2.207433 295.48001
-6.9516211 -14.587479 -2.2710266 295.48001
-8.7601824 -18.382614 -2.3813217 295.48001
-11.509386 -24.151623 -2.4960063 295.48001
-15.034774 -31.549395 -2.4438484 295.48001
-2.0412607 -4.2834396 -2.1125901 295.48001
-2.1785114 -4.5714502 -2.1152012 295.48001
-2.3330383 -4.8957138 -2.1176884 295.48001
-2.505554 -5.2577257 -2.1198409 295.48001
-2.7029262 -5.6718969 -2.1230159 295.48001
-2.9255934 -6.1391482 -2.1220596 295.48001
-3.1957672 -6.7060885 -2.1301255 295.48001
-3.5066638 -7.3584828 -2.1338968 295.48001
-3.8905222 -8.1639824 -2.1428177 295.48001
-4.3409233 -9.1091166 -2.1448171 295.48001
-4.9318933 -10.349225 -2.1599844 295.48001
-5.8215537 -12.117937 -2.20873 295.66
-7.0042753 -14.579849 -2.2732534 295.66
-8.8273516 -18.374699 -2.383877 295.66
-11.523979 -23.987904 -2.4828157 295.66
-15.083706 -31.397701 -2.4357564 295.66
-2.0554986 -4.2786522 -2.1134036 295.66
-2.1936615 -4.566247 -2.115972 295.66
-2.3467937 -4.8850017 -2.1162336 295.66
-2.5212455 -5.2481341 -2.1191568 295.66
-2.7215521 -5.6650858 -2.123656 295.66
-2.9440389 -6.1282063 -2.121464 295.66
-3.2201493 -6.7029471 -2.1323307 295.66
-3.5314395 -7.3509178 -2.1349096 295.66
-3.9136226 -8.1464567 -2.1414344 295.66
-4.3669777 -9.0901442 -2.1435695 295.66
-4.9669352 -10.338994 -2.1610951 295.66
-5.8570895 -12.105186 -2.2093785 295.82001
-7.0449629 -14.560233 -2.2732534 295.82001
-8.8907413 -18.375011 -2.3871291 295.82001
-11.511127 -23.790714 -2.4657235 295.82001
-15.078346 -31.16329 -2.4208286 295.82001
-2.0674388 -4.2728958 -2.1134036 295.82001
-2.2039928 -4.5551195 -2.1136594 295.82001
-2.3644831 -4.8868141 -2.1198709 295.82001
-2.5367095 -5.2427649 -2.1198409 295.82001
-2.7373614 -5.6574636 -2.123656 295.82001
-2.9611406 -6.1199608 -2.121464 295.82001
-3.2363427 -6.6887369 -2.1306767 295.82001
-3.5511107 -7.3392859 -2.1344032 295.82001
-3.9363565 -8.1354961 -2.1414344 295.82001
-4.392345 -9.0779133 -2.1435695 295.82001
-4.9974999 -10.328622 -2.1618359 295.82001
-5.9011459 -12.099143 -2.211648 296
-7.1028252 -14.56295 -2.2771504 296
-8.9606161 -18.371984 -2.3903813 296
-11.516849 -23.613039 -2.4510467 296
-15.156932 -31.076317 -2.4177594 296
-2.0800514 -4.2647376 -2.1125901 296
-2.2174833 -4.5465145 -2.1128886 296
-2.3741069 -4.8676405 -2.1147785 296
-2.5531678 -5.2347698 -2.1198409 296
-2.7551215 -5.6488361 -2.123656 296
-2.9803524 -6.1106281 -2.121464 296
-3.2548118 -6.6733527 -2.1290228 296
-3.5749984 -7.3298326 -2.1349096 296
-3.9644549 -8.1283369 -2.1428177 296
-4.4234152 -9.0693445 -2.1448171 296
-5.0333695 -10.319938 -2.163317 296
-5.9439821 -12.09575 -2.214242 296.17001
-7.1503706 -14.550698 -2.278542 296.17001
-9.0256004 -18.366713 -2.3931689 296.17001
-11.51045 -23.423275 -2.4348834 296.17001
-15.298347 -31.131483 -2.4255722 296.17001
-2.0910842 -4.2552676 -2.1109631 296.17001
-2.2325912 -4.5432277 -2.1144302 296.17001
-2.3934689 -4.8706069 -2.1191435 296.17001
-2.5670307 -5.2237978 -2.1184728 296.17001
-2.7701983 -5.6372352 -2.1223757 296.17001
-3.0009959 -6.1068988 -2.1232512 296.17001
-3.2754455 -6.6653919 -2.1295743 296.17001
-3.5958772 -7.3174567 -2.1344032 296.17001
-3.989413 -8.1182852 -2.1432788 296.17001
-4.4477162 -9.0509129 -2.1435695 296.17001
-5.065701 -10.308485 -2.1640577 296.17001
-5.9842229 -12.086904 -2.2158632 296.34
-7.1987844 -14.540069 -2.2802122 296.34
-9.0906324 -18.361214 -2.3959565 296.34
-11.503912 -23.235544 -2.418906 296.34
-15.411894 -31.128866 -2.4289205 296.34
-2.1037006 -4.2490444 -2.1109631 296.34
-2.2460613 -4.5365834 -2.1144302 296.34
-2.4062564 -4.8601451 -2.1176884 296.34
-2.5833526 -5.2178426 -2.1191568 296.34
-2.7919564 -5.6391797 -2.1262171 296.34
-3.016561 -6.0928349 -2.121464 296.34
-3.2952075 -6.6556439 -2.1295743 296.34
-3.6175728 -7.3067555 -2.1344032 296.34
-4.0126195 -8.1046686 -2.1428177 296.34
-4.4754195 -9.0394297 -2.1439853 296.34
-5.0988808 -10.298694 -2.1651685 296.34
-6.0265718 -12.076874 -2.2174845 296.51999
-7.2523866 -14.533331 -2.2827172 296.51999
-9.1624622 -18.361004 -2.3996735 296.51999
-11.507497 -23.060307 -2.4044149 296.51999
-15.535446 -31.132065 -2.4329662 296.51999
-2.1170392 -4.2424145 -2.1109631 296.51999
-2.2594783 -4.5278535 -2.1136594 296.51999
-2.4198494 -4.8492274 -2.1162336 296.51999
-2.5997322 -5.2097011 -2.1191568 296.51999
-2.8062744 -5.6235991 -2.123656 296.51999
-3.0390971 -6.0901613 -2.123847 296.51999
-3.3169591 -6.6469793 -2.1301255 296.51999
-3.6396458 -7.293623 -2.1338968 296.51999
-4.0389299 -8.0937643 -2.1432788 296.51999
-4.5072894 -9.0323267 -2.1456487 296.51999
-5.1355977 -10.291417 -2.1670201 296.51999
-6.072679 -12.084685 -2.2220237 296.67999
-7.2973895 -14.52187 -2.2841089 296.67999
-9.214592 -18.33712 -2.3999057 296.67999
-11.490483 -22.866163 -2.3875086 296.67999
-15.634864 -31.113518 -2.4349194 296.67999
-2.1329799 -4.2446489 -2.1150305 296.67999
-2.277914 -4.5330691 -2.1190553 296.67999
-2.4367278 -4.8491096 -2.1191435 296.67999
-2.6125824 -5.1990623 -2.1177888 296.67999
-2.820266 -5.6123543 -2.1223757 296.67999
-3.0543778 -6.078239 -2.1226554 296.67999
-3.3372345 -6.6411262 -2.131228 296.67999
-3.6599991 -7.2834311 -2.1338968 296.67999
-4.0553994 -8.070281 -2.1400511 296.67999
-4.5316167 -9.0179567 -2.1452329 296.67999
-5.1687293 -10.285817 -2.1688716 296.67999
-6.1070476 -12.058505 -2.2207267 296.85999
-7.3474493 -14.507707 -2.2855008 296.85999
-9.2945919 -18.352385 -2.4057133 296.85999
-11.50378 -22.714479 -2.3754325 296.85999
-15.752364 -31.103403 -2.4379888 296.85999
-2.1405256 -4.2265172 -2.1093361 296.85999
-2.2863071 -4.5143657 -2.1136594 296.85999
-2.4477408 -4.8331203 -2.1155062 296.85999
-2.6306012 -5.1941824 -2.1191568 296.85999
-2.8361716 -5.6000857 -2.1210952 296.85999
-3.0725954 -6.0669098 -2.1220596 296.85999
-3.3537385 -6.6220336 -2.1284716 296.85999
-3.6811144 -7.2684445 -2.1328838 296.85999
-4.0860085 -8.0679178 -2.1428177 296.85999
-4.5643444 -9.0124025 -2.1473119 296.85999
-5.2010174 -10.269528 -2.1688716 296.85999
-6.1544585 -12.063186 -2.224942 297.03
-7.3976626 -14.499956 -2.2877274 297.03
-9.356226 -18.338882 -2.4075716 297.03
-11.540356 -22.619936 -2.3691158 297.03
-15.946131 -31.255575 -2.4536142 297.03
-2.1572082 -4.2282848 -2.1134036 297.03
-2.3005302 -4.5092063 -2.1144302 297.03
-2.465457 -4.8324747 -2.1184161 297.03
-2.6442928 -5.1830058 -2.1177888 297.03
-2.8553581 -5.5967097 -2.1230159 297.03
-3.0879798 -6.0526648 -2.1202724 297.03
-3.3751192 -6.615479 -2.1295743 297.03
-3.7035432 -7.2592139 -2.1333902 297.03
-4.1090441 -8.0540257 -2.1423566 297.03
-4.5848413 -8.9866219 -2.1444011 297.03
-5.2341442 -10.259303 -2.1699827 297.03
-6.1959352 -12.050812 -2.226239 297.20999
-7.4513292 -14.492496 -2.2902327 297.20999
-9.425601 -18.332365 -2.4105916 297.20999
-11.570386 -22.503876 -2.3607557 297.20999
-16.223963 -31.554871 -2.4810982 297.20999
-2.1679747 -4.2166123 -2.1109631 297.20999
-2.3146849 -4.5019569 -2.1144302 297.20999
-2.4806263 -4.8247056 -2.1184161 297.20999
-2.6605625 -5.1746731 -2.1177888 297.20999
-2.8711939 -5.5843415 -2.1217353 297.20999
-3.1104715 -6.0497255 -2.1226554 297.20999
-3.3950064 -6.6031332 -2.1290228 297.20999
-3.7263305 -7.2475433 -2.1333902 297.20999
-4.1352162 -8.0428076 -2.1428177 297.20999
-4.6112618 -8.9686937 -2.1435695 297.20999
-5.2699437 -10.249801 -2.1714637 297.20999
-6.2304707 -12.035215 -2.2265632 297.37
-7.5008764 -14.489221 -2.293016 297.37
-9.4813242 -18.314793 -2.4117532 297.37
-11.62586 -22.457329 -2.3592694 297.37
-16.30743 -31.500582 -2.4804008 297.37
-2.1805813 -4.2121644 -2.1117766 297.37
-2.3263993 -4.4938364 -2.1136594 297.37
-2.4898074 -4.8094873 -2.1147785 297.37
-2.6741385 -5.165554 -2.1171048 297.37
-2.885906 -5.5746193 -2.1210952 297.37
-3.128231 -6.0427113 -2.1232512 297.37
-3.4160843 -6.5987487 -2.1306767 297.37
-3.7465549 -7.2371092 -2.1333902 297.37
-4.1558704 -8.0277719 -2.1418955 297.37
-4.6317921 -8.9470959 -2.1414905 297.37
-5.3039675 -10.245517 -2.1736856 297.37
-6.2688899 -12.021926 -2.227536 297.54001
-7.5484123 -14.475681 -2.2944078 297.54001
-9.5448084 -18.304193 -2.4140761 297.54001
-11.663898 -22.367998 -2.3535101 297.54001
-2.1930695 -4.2056761 -2.1117766 297.54001
-2.3371625 -4.4820051 -2.111347 297.54001
-2.5083733 -4.810338 -2.1184161 297.54001
-2.6894534 -5.1575971 -2.1171048 297.54001
-2.9041855 -5.5693922 -2.1223757 297.54001
-3.1434979 -6.0283246 -2.121464 297.54001
-3.4329813 -6.5834699 -2.1290228 297.54001
-3.7671168 -7.2242455 -2.1328838 297.54001
-4.178771 -8.0136805 -2.1414344 297.54001
-4.6664591 -8.948925 -2.1452329 297.54001
-5.334343 -10.229734 -2.1736856 297.54001
-6.3130527 -12.014401 -2.2298055 297.72
-7.6030641 -14.469429 -2.2971911 297.72
-9.6198215 -18.307529 -2.4184899 297.72
-11.738743 -22.340059 -2.354439 297.72
-2.2079709 -4.2020001 -2.1134036 297.72
-2.3512316 -4.4746404 -2.111347 297.72
-2.52174 -4.7991357 -2.116961 297.72
-2.7073915 -5.1524501 -2.1184728 297.72
-2.9207866 -5.5585637 -2.1217353 297.72
-3.1615329 -6.0167289 -2.1208682 297.72
-3.4518583 -6.5692487 -2.1279204 297.72
-3.7906938 -7.214088 -2.1333902 297.72
-4.2057366 -8.0039587 -2.1423566 297.72
-4.6954598 -8.9359522 -2.1456487 297.72
-5.3719397 -10.223365 -2.1759074 297.72
-6.3505187 -11.999106 -2.230454 297.89001
-7.6487417 -14.452058 -2.2980263 297.89001
-9.6824617 -18.294708 -2.4205806 297.89001
-11.815222 -22.324492 -2.3564825 297.89001
-2.219574 -4.1938157 -2.1125901 297.89001
-2.365361 -4.469276 -2.1121178 297.89001
-2.5368395 -4.7932792 -2.1176884 297.89001
-23.528175 -44.45575 0 297.89001
-2.7226672 -5.1443944 -2.1184728 297.89001
-2.9354937 -5.5465236 -2.120455 297.89001
-3.1793711 -6.0073218 -2.1208682 297.89001
-3.4740324 -6.5640755 -2.1295743 297.89001
-3.8111765 -7.2010989 -2.1328838 297.89001
-4.2267356 -7.9862843 -2.1409733 297.89001
-4.7228675 -8.9237108 -2.1460645 297.89001
-5.4050074 -10.212593 -2.1770184 297.89001
-6.3937554 -11.989545 -2.2323995 298.07001
-7.7080851 -14.454171 -2.3022015 298.07001
-9.7520399 -18.286985 -2.4236004 298.07001
-11.888109 -22.292534 -2.3570399 298.07001
-15.433993 -28.941763 -2.2935929 298.07001
-2.2327383 -4.1868219 -2.1125901 298.07001
-2.37939 -4.4618225 -2.1121178 298.07001
-23.761074 -44.556671 -1.1723772 298.07001
-2.5501323 -4.7819982 -2.1162336 298.07001
-23.65831 -44.363968 0 298.07001
-2.7388153 -5.1358156 -2.1184728 298.07001
-2.9564705 -5.5439615 -2.1230159 298.07001
-3.1982279 -5.997304 -2.1208682 298.07001
-3.4937322 -6.5514326 -2.1290228 298.07001
-3.8337805 -7.1890903 -2.1328838 298.07001
-4.2527199 -7.9746833 -2.1414344 298.07001
-4.7545609 -8.9157343 -2.1477277 298.07001
-5.4416885 -10.204233 -2.17887 298.07001
-6.431879 -11.980337 -2.2340207 298.23001
-7.7531028 -14.441315 -2.3035932 298.23001
-9.8162231 -18.284184 -2.4268527 298.23001
-11.955967 -22.269777 -2.3581548 298.23001
-14.951353 -27.849133 -2.2103035 298.23001
-2.2435572 -4.1789608 -2.1117766 298.23001
-15.547095 -28.958792 -1.5327811 298.23001
-2.3935864 -4.4584126 -2.1136594 298.23001
-2.5634763 -4.774858 -2.1162336 298.23001
-23.80954 -44.348831 0 298.23001
-2.7522576 -5.1264915 -2.1177888 298.23001
-2.9674594 -5.5273371 -2.1198146 298.23001
-3.2131569 -5.9849854 -2.1196766 298.23001
-3.5111043 -6.539957 -2.1284716 298.23001
-3.8529263 -7.1766515 -2.1323771 298.23001
-4.2758932 -7.9644914 -2.1418955 298.23001
-4.7822161 -8.9075928 -2.1489751 298.23001
-5.4720225 -10.192461 -2.1796105 298.23001
-6.4779353 -11.975695 -2.236939 298.41
-7.80126 -14.422112 -2.3044281 298.41
-9.8859024 -18.275969 -2.4298725 298.41
-12.027765 -22.235609 -2.3585262 298.41
-15.106166 -27.926619 -2.2202091 298.41
-2.257544 -4.1734991 -2.1125901 298.41
-15.672215 -28.973066 -1.5361351 298.41
-2.4058249 -4.4476247 -2.1121178 298.41
-2.5766914 -4.763504 -2.1147785 298.41
-2.7665608 -5.1145134 -2.1164207 298.41
-2.9866123 -5.5213203 -2.1210952 298.41
-3.2355769 -5.9815784 -2.1220596 298.41
-3.5307181 -6.5272036 -2.1279204 298.41
-3.8772943 -7.1679153 -2.1333902 298.41
-4.2981157 -7.9458838 -2.1405122 298.41
-4.8129687 -8.897687 -2.1502228 298.41
-5.504951 -10.176949 -2.1799808 298.41
-6.5196443 -11.977762 -2.2405055 298.56
-7.8512993 -14.424253 -2.3080468 298.56
-9.9432116 -18.267473 -2.4321957 298.56
-12.074512 -22.183056 -2.3562968 298.56
-15.201164 -27.927279 -2.2234178 298.56
-2.2675889 -4.1659698 -2.1117766 298.56
-15.7738 -28.979315 -1.5386506 298.56
-2.4201074 -4.4461737 -2.1144302 298.56
-2.5909348 -4.7600145 -2.1162336 298.56
-2.781738 -5.1105547 -2.1177888 298.56
-2.9992452 -5.5101542 -2.1198146 298.56
-3.2475743 -5.9663796 -2.1196766 298.56
-3.5496323 -6.5213146 -2.1290228 298.56
-3.8951216 -7.1560407 -2.1328838 298.56
-4.3216944 -7.9397316 -2.1418955 298.56
-4.8306346 -8.8747473 -2.1477277 298.56
-5.5372133 -10.172859 -2.1822026 298.56
-6.5574293 -11.952616 -2.239857 298.75
-7.905757 -14.410293 -2.3099952 298.75
-10.016155 -18.25704 -2.4352155 298.75
-12.142261 -22.132418 -2.3551822 298.75
-15.317681 -27.920446 -2.2269056 298.75
-2.2822702 -4.1600289 -2.1125901 298.75
-15.883265 -28.95137 -1.5399549 298.75
-2.4348381 -4.4381237 -2.1144302 298.75
-2.6049132 -4.7481298 -2.1147785 298.75
-2.7986701 -5.1013017 -2.1177888 298.75
-3.0220578 -5.5084839 -2.1230159 298.75
-3.2673419 -5.9555774 -2.1196766 298.75
-3.5693889 -6.5061369 -2.1279204 298.75
-3.9178998 -7.1413884 -2.1323771 298.75
-4.3470635 -7.9236507 -2.1414344 298.75
-4.859097 -8.8569641 -2.1473119 298.75
-5.5690265 -10.150994 -2.181462 298.75
-6.5945983 -11.941168 -2.241154 298.91
-7.9526696 -14.400295 -2.3119435 298.91
-10.074782 -18.24291 -2.4370739 298.91
-12.203055 -22.096682 -2.3549964 298.91
-14.837135 -26.866341 -2.1461277 298.91
-2.2912283 -4.1488414 -2.1101496 298.91
-2.4445457 -4.4264607 -2.1121178 298.91
-2.6181622 -4.7408366 -2.1147785 298.91
-2.8129046 -5.0934668 -2.1177888 298.91
-3.0337646 -5.4933887 -2.120455 298.91
-3.2839601 -5.9464302 -2.1196766 298.91
-3.5847554 -6.4910951 -2.1262665 298.91
-3.9387624 -7.1321135 -2.1328838 298.91
-4.3710551 -7.9148879 -2.1423566 298.91
-4.884757 -8.8450727 -2.1477277 298.91
-5.6049528 -10.149167 -2.1844244 298.91
-6.6389594 -11.927855 -2.2427752 299.10001
-8.0071211 -14.385958 -2.3138919 299.10001
-10.143917 -18.225021 -2.4391646 299.10001
-12.281106 -22.064793 -2.3559253 299.10001
-14.928087 -26.820478 -2.1464067 299.10001
-2.306751 -4.1444135 -2.1117766 299.10001
-2.4619036 -4.4231677 -2.1144302 299.10001
-2.6347752 -4.7337565 -2.1155062 299.10001
-2.8306937 -5.085753 -2.1184728 299.10001
-3.0519645 -5.4832983 -2.120455 299.10001
-3.3045897 -5.9371758 -2.1202724 299.10001
-3.6128058 -6.490931 -2.1301255 299.10001
-3.9586279 -7.1122503 -2.1308577 299.10001
-4.3953853 -7.8969483 -2.1414344 299.10001
-4.9197698 -8.8390818 -2.1502228 299.10001
-5.6414452 -10.135677 -2.1855354 299.10001
-6.6740208 -11.917321 -2.2440722 299.25
-8.0554018 -14.383954 -2.3169539 299.25
-10.206155 -18.2244 -2.4426491 299.25
-12.325208 -22.008242 -2.3533242 299.25
-15.04602 -26.866602 -2.1532428 299.25
-2.3149149 -4.1335778 -2.1093361 299.25
-2.4716713 -4.413487 -2.1128886 299.25
-2.6480691 -4.7284679 -2.1162336 299.25
-2.8421619 -5.0750451 -2.1171048 299.25
-3.0653837 -5.4736362 -2.1198146 299.25
-3.3173232 -5.9235067 -2.1184852 299.25
-3.6250896 -6.4730635 -2.1273692 299.25
-3.9781795 -7.1035504 -2.1313641 299.25
-4.4150934 -7.8837161 -2.1409733 299.25
-4.9476733 -8.8347063 -2.1523018 299.25
-5.6708422 -10.126018 -2.1866462 299.25
-6.7173834 -11.901999 -2.2453692 299.44
-8.1059761 -14.362337 -2.3177888 299.44
-10.279225 -18.212944 -2.4456692 299.44
-12.396164 -21.963779 -2.3529527 299.44
-15.095804 -26.747059 -2.1476624 299.44
-2.3322017 -4.1322432 -2.1125901 299.44
-2.4853864 -4.4036589 -2.1121178 299.44
-2.6619034 -4.7164159 -2.1147785 299.44
-2.858052 -5.0639558 -2.1164207 299.44
-3.0844493 -5.4650912 -2.120455 299.44
-3.3378863 -5.9141359 -2.119081 299.44
-3.6484251 -6.464355 -2.1284716 299.44
-4.0036159 -7.0936894 -2.1323771 299.44
-4.4421687 -7.8707266 -2.1414344 299.44
-4.9759812 -8.8165464 -2.151886 299.44
-5.7101865 -10.117426 -2.188868 299.44
-6.7585182 -11.89231 -2.2473147 299.60999
-8.157362 -14.35372 -2.3202939 299.60999
-10.344997 -18.203091 -2.4484568 299.60999
-12.470133 -21.942486 -2.3546247 299.60999
-15.12088 -26.606749 -2.1399891 299.60999
-2.3435493 -4.1237168 -2.1117766 299.60999
-2.4993532 -4.3978701 -2.1128886 299.60999
-2.6758857 -4.708497 -2.1147785 299.60999
-2.8749216 -5.0587211 -2.1177888 299.60999
-3.1006508 -5.4559155 -2.120455 299.60999
-3.357306 -5.907526 -2.1202724 299.60999
-3.6647394 -6.4484873 -2.1268179 299.60999
-4.0227337 -7.0784149 -2.1313641 299.60999
-4.4655023 -7.857512 -2.1414344 299.60999
-5.0069513 -8.8102484 -2.1539652 299.60999
-5.7411513 -10.102148 -2.1892383 299.60999
-6.7966013 -11.881956 -2.2489357 299.76999
-8.2121639 -14.356671 -2.3244691 299.76999
-10.408611 -18.196547 -2.4514766 299.76999
-12.517516 -21.883377 -2.3520238 299.76999
-15.267437 -26.690844 -2.1501737 299.76999
-2.355963 -4.1187425 -2.1125901 299.76999
-2.5125408 -4.3924751 -2.1136594 299.76999
-2.6871738 -4.697772 -2.1133237 299.76999
-2.8862376 -5.0457792 -2.1157367 299.76999
-3.1205785 -5.4554586 -2.123656 299.76999
-3.3737898 -5.898128 -2.1202724 299.76999
-3.6817782 -6.4365592 -2.1262665 299.76999
-4.0434451 -7.0688334 -2.1318707 299.76999
-4.4874272 -7.8450112 -2.1414344 299.76999
-5.032506 -8.7979298 -2.154381 299.76999
-5.7751946 -10.096313 -2.1914601 299.76999
-6.8446302 -11.88397 -2.2531509 299.94
-8.2547245 -14.332242 -2.3244691 299.94
-10.469496 -18.177633 -2.4531028 299.94
-12.586366 -21.853043 -2.352767 299.94
-14.640573 -25.419653 -2.0512588 299.94
-2.3672612 -4.1101508 -2.1117766 299.94
-2.5255625 -4.3850012 -2.1136594 299.94
-2.70296 -4.693007 -2.1147785 299.94
-2.9030719 -5.0404506 -2.1171048 299.94
-3.1310775 -5.4363246 -2.1198146 299.94
-3.390322 -5.8864374 -2.1196766 299.94
-3.6979809 -6.420609 -2.1246128 299.94
-4.0653667 -7.0584817 -2.1323771 299.94
-4.5116553 -7.8333488 -2.1418955 299.94
-5.0595646 -8.7846546 -2.1547968 299.94
-5.8051252 -10.079133 -2.1914601 299.94
-6.8789601 -11.857287 -2.2521782 300.12
-8.3076611 -14.319943 -2.3266959 300.12
-10.538513 -18.165272 -2.4558904 300.12
-12.648961 -21.803059 -2.3516521 300.12
-14.749393 -25.42358 -2.0553048 300.12
-2.379245 -4.1011128 -2.1109631 300.12
-2.5383999 -4.3754487 -2.1128886 300.12
-2.7186251 -4.6861038 -2.1155062 300.12
-2.9217219 -5.0361824 -2.1191568 300.12
-3.1547964 -5.4379334 -2.1242964 300.12
-3.40784 -5.8741059 -2.119081 300.12
-3.7210279 -6.4139485 -2.1262665 300.12
-4.0846086 -7.0406542 -2.1308577 300.12
-4.5430779 -7.8309197 -2.1451235 300.12
-5.0900822 -8.7737923 -2.1560442 300.12
-5.8436651 -10.072746 -2.1940522 300.12
-6.9220743 -11.850458 -2.2547722 300.29001
-8.3471155 -14.290101 -2.325861 300.29001
-10.602383 -18.151075 -2.4582133 300.29001
-12.72364 -21.782627 -2.3535101 300.29001
-14.845894 -25.415884 -2.0582345 300.29001
-2.3914027 -4.0940356 -2.1109631 300.29001
-25.187439 -43.120411 -2.3287988 300.29001
-2.5504401 -4.3663044 -2.1121178 300.29001
-25.228188 -43.190174 -1.1612824 300.29001
-2.7306378 -4.6747994 -2.1140511 300.29001
-25.254152 -43.234623 0 300.29001
-2.9328599 -5.0209999 -2.1164207 300.29001
-25.26046 -43.245419 1.162768 300.29001
-3.1651831 -5.4187326 -2.120455 300.29001
-25.280142 -43.279118 2.3373699 300.29001
-3.420439 -5.8557258 -2.1161022 300.29001
-25.30232 -43.317085 3.5079136 300.29001
-3.740042 -6.4028802 -2.1262665 300.29001
-25.301643 -43.315929 4.6800814 300.29001
-4.1074324 -7.0318456 -2.1318707 300.29001
-25.304647 -43.321072 5.8670039 300.29001
-4.5604033 -7.807323 -2.1423566 300.29001
-25.321049 -43.349148 7.0555196 300.29001
-5.1190524 -8.7637186 -2.1572917 300.29001
-5.8794737 -10.065546 -2.196274 300.29001
-6.9592695 -11.828653 -2.2547722 300.47
-8.4010067 -14.27917 -2.328366 300.47
-10.665398 -18.127951 -2.4596071 300.47
-12.786961 -21.733967 -2.3525813 300.47
-14.917573 -25.355362 -2.0571184 300.47
-2.4051793 -4.0880775 -2.1117766 300.47
-25.202225 -42.836159 -2.3177118 300.47
-2.5660162 -4.3614516 -2.1136594 300.47
-25.221804 -42.869438 -1.1547835 300.47
-2.7443659 -4.6645923 -2.1133237 300.47
-25.242798 -42.905121 0 300.47
-2.9505255 -5.0150008 -2.1177888 300.47
-25.268442 -42.948711 1.1569189 300.47
-3.1802692 -5.4054961 -2.1191745 300.47
-25.2701 -42.951527 2.3239541 300.47
-3.4407547 -5.8482423 -2.1172936 300.47
-25.298666 -43.00008 3.4886608 300.47
-3.7601388 -6.3910985 -2.1262665 300.47
-25.324503 -43.043999 4.6592736 300.47
-4.1295033 -7.0189071 -2.1318707 300.47
-25.332838 -43.058163 5.8421478 300.47
-4.5799742 -7.7845707 -2.1400511 300.47
-25.363708 -43.110634 7.0296335 300.47
-5.1475511 -8.74928 -2.1577075 300.47
-5.9160495 -10.055495 -2.1981256 300.47
-7.0023813 -11.821537 -2.2573659 300.64001
-8.457468 -14.278037 -2.3322628 300.64001
-10.728249 -18.111609 -2.4616978 300.64001
-12.838197 -21.673656 -2.3501658 300.64001
-14.931729 -25.207994 -2.0487475 300.64001
-2.4154358 -4.0777788 -2.1101496 300.64001
-25.180557 -42.510235 -2.3041096 300.64001
-2.5770645 -4.3506432 -2.1121178 300.64001
-25.212341 -42.563892 -1.1485629 300.64001
-2.7619917 -4.6628404 -2.1162336 300.64001
-25.238501 -42.608059 0 300.64001
-2.9663501 -5.0078416 -2.1184728 300.64001
-25.256159 -42.637867 1.1505591 300.64001
-3.1972594 -5.3976665 -2.1198146 300.64001
-25.269138 -42.659779 2.3122151 300.64001
-3.4590647 -5.8396502 -2.1178894 300.64001
-25.284801 -42.686222 3.4692686 300.64001
-3.7781053 -6.3782601 -2.1257153 300.64001
-25.314083 -42.735657 4.634007 300.64001
-4.1512966 -7.0082884 -2.1323771 300.64001
-25.331909 -42.765751 5.8126454 300.64001
-4.6030512 -7.7709475 -2.1400511 300.64001
-25.358273 -42.810257 6.9928918 300.64001
-5.1764789 -8.7390175 -2.1589551 300.64001
-5.945859 -10.037898 -2.1981256 300.64001
-7.0455518 -11.809649 -2.2593114 300.82001
-8.5002518 -14.247995 -2.331706 300.82001
-10.799344 -18.101698 -2.4649501 300.82001
-12.913365 -21.645189 -2.3514664 300.82001
-15.069114 -25.258623 -2.0566998 300.82001
-2.4291708 -4.0717397 -2.1109631 300.82001
-25.183989 -42.213024 -2.2922773 300.82001
-2.5926108 -4.3456955 -2.1136594 300.82001
-25.219933 -42.273273 -1.1428531 300.82001
-2.7747178 -4.6509404 -2.1147785 300.82001
-25.233902 -42.296688 0 300.82001
-2.9811051 -4.9968839 -2.1177888 300.82001
-25.266031 -42.35054 1.144942 300.82001
-3.2151716 -5.3892226 -2.120455 300.82001
-25.284298 -42.381165 2.3014076 300.82001
-3.4764152 -5.8271151 -2.1172936 300.82001
-25.293051 -42.395832 3.4521084 300.82001
-3.8000944 -6.3696613 -2.1268179 300.82001
-25.322723 -42.445572 4.6111555 300.82001
-4.1723022 -6.9935503 -2.1318707 300.82001
-25.321617 -42.443714 5.7796588 300.82001
-4.6284385 -7.7581196 -2.1405122 300.82001
-25.366814 -42.519474 6.9583769 300.82001
-5.2079172 -8.7294321 -2.1606183 300.82001
-5.9793782 -10.022545 -2.1988664 300.82001
-7.0835824 -11.798388 -2.2609327 300.98001
-8.547143 -14.236089 -2.3336546 300.98001
-10.866211 -18.098721 -2.468667 300.98001
-12.969659 -21.602215 -2.3507233 300.98001
-15.163211 -25.255785 -2.0599086 300.98001
-2.4395912 -4.063374 -2.1101496 300.98001
-25.170141 -41.92329 -2.2803519 300.98001
-2.6018863 -4.3336921 -2.111347 300.98001
-25.245255 -42.048401 -1.1386752 300.98001
-2.7886539 -4.6447711 -2.1155062 300.98001
-25.224262 -42.013435 0 300.98001
-2.9902105 -4.9804831 -2.1143684 300.98001
-25.250401 -42.056973 1.1389073 300.98001
-3.2292333 -5.3785987 -2.1198146 300.98001
-25.254467 -42.063744 2.2879915 300.98001
-3.4946394 -5.8206582 -2.1184852 300.98001
-25.295296 -42.131748 3.4363434 300.98001
-3.8168774 -6.3573761 -2.1262665 300.98001
-25.318151 -42.169819 4.5888615 300.98001
-4.1878319 -6.9752364 -2.1298447 300.98001
-25.306093 -42.149734 5.749227 300.98001
-4.656096 -7.7551751 -2.1432788 300.98001
-25.344767 -42.214146 6.9199648 300.98001
-5.2342877 -8.7182093 -2.1614499 300.98001
-6.0134134 -10.015918 -2.2010882 300.98001
-7.1226416 -11.784075 -2.2622297 301.14999
-8.6036873 -14.234396 -2.3375514 301.14999
-10.929111 -18.081699 -2.4707577 301.14999
-13.035757 -21.567047 -2.351095 301.14999
-15.491961 -25.63072 -2.0942287 301.14999
-2.4525819 -4.0576811 -2.1109631 301.14999
-25.168339 -41.639832 -2.2689855 301.14999
-2.6166425 -4.3291116 -2.1128886 301.14999
-25.41231 -42.043468 -1.1405784 301.14999
-2.802423 -4.6364765 -2.1155062 301.14999
-25.225695 -41.734722 0 301.14999
-3.0069189 -4.9748058 -2.1157367 301.14999
-25.24579 -41.767971 1.1331046 301.14999
-3.2451777 -5.3689938 -2.1198146 301.14999
-25.257215 -41.786873 2.2769978 301.14999
-3.5118942 -5.8102636 -2.1184852 301.14999
-25.45528 -42.114563 3.4410868 301.14999
-3.8337343 -6.3427329 -2.125164 301.14999
-25.476124 -42.149048 4.5948067 301.14999
-4.2105112 -6.9660921 -2.1308577 301.14999
-25.309792 -41.873856 5.7218156 301.14999
-4.6780787 -7.7396607 -2.1428177 301.14999
-25.339796 -41.9235 6.8846149 301.14999
-5.262156 -8.7059898 -2.1622815 301.14999
-25.356482 -41.951103 8.0534983 301.14999
-6.0441213 -9.9997139 -2.2014585 301.14999
-7.1616774 -11.769633 -2.2635267 301.32001
-8.6458836 -14.208806 -2.3375514 301.32001
-10.989941 -18.061071 -2.4723837 301.32001
-13.100725 -21.529974 -2.3512807 301.32001
-15.450748 -25.392046 -2.0784638 301.32001
-2.4636607 -4.0488257 -2.1101496 301.32001
-25.163002 -41.353344 -2.2574329 301.32001
-2.6265976 -4.3165994 -2.1105762 301.32001
-25.508881 -41.921764 -1.139325 301.32001
-2.8122935 -4.6217752 -2.1125963 301.32001
-25.216339 -41.440998 0 301.32001
-3.0236201 -4.9690733 -2.1171048 301.32001
-25.242805 -41.484493 1.1274412 301.32001
-3.2610934 -5.3593411 -2.1198146 301.32001
-25.24712 -41.491585 2.2649794 301.32001
-3.5291181 -5.799818 -2.1184852 301.32001
-25.626795 -42.115547 3.447365 301.32001
-3.8515372 -6.3296876 -2.1246128 301.32001
-25.635229 -42.12941 4.6009374 301.32001
-4.2311611 -6.9535685 -2.1308577 301.32001
-25.298651 -41.576271 5.6913843 301.32001
-4.7030454 -7.7290716 -2.1437399 301.32001
-25.336414 -41.638332 6.8501 301.32001
-5.2930489 -8.6986942 -2.1643608 301.32001
-25.334139 -41.634594 8.0071325 301.32001
-6.0798945 -9.9918108 -2.2036803 301.32001
-7.2027526 -11.75843 -2.2654722 301.48999
-8.694212 -14.193224 -2.3392215 301.48999
-11.071497 -18.07412 -2.4786558 301.48999
-13.157268 -21.479122 -2.3499801 301.48999
-15.57917 -25.432858 -2.0855792 301.48999
-2.4756629 -4.0414977 -2.1101496 301.48999
-25.155144 -41.065548 -2.2457869 301.48999
-2.6403577 -4.3103609 -2.111347 301.48999
-25.185097 -41.114449 -1.1194102 301.48999
-2.8269675 -4.6149993 -2.1133237 301.48999
-25.209642 -41.154522 0 301.48999
-3.0383503 -4.9600801 -2.1171048 301.48999
-25.238361 -41.201405 1.1217777 301.48999
-3.275001 -5.3464103 -2.1185343 301.48999
-25.253239 -41.225689 2.2545447 301.48999
-3.5433192 -5.7844372 -2.116698 301.48999
-25.263912 -41.243114 3.3820729 301.48999
-3.8733137 -6.3231502 -2.1262665 301.48999
-25.286835 -41.280533 4.5164061 301.48999
-4.2578382 -6.9508829 -2.1338968 301.48999
-25.291159 -41.287594 5.6621141 301.48999
-4.7208743 -7.7067857 -2.1414344 301.48999
-25.33777 -41.363689 6.817255 301.48999
-5.3229222 -8.6896238 -2.166024 301.48999
-25.332823 -41.35561 7.9678993 301.48999
-6.111567 -9.9770794 -2.2044208 301.48999
-7.2469101 -11.747501 -2.2677417 301.67001
-8.7418776 -14.170897 -2.3400564 301.67001
-11.175156 -18.115328 -2.4891095 301.67001
-13.240364 -21.463104 -2.352767 301.67001
-15.508153 -25.139273 -2.0654893 301.67001
-2.4902661 -4.0368104 -2.1117766 301.67001
-25.156063 -40.778881 -2.2344205 301.67001
-2.6567929 -4.3067565 -2.1136594 301.67001
-25.193413 -40.839428 -1.1140717 301.67001
-2.8404737 -4.6045098 -2.1125963 301.67001
-25.217003 -40.877666 0 301.67001
-3.0509577 -4.9457121 -2.1150525 301.67001
-25.233305 -40.904091 1.1158358 301.67001
-3.2907863 -5.3344827 -2.1178939 301.67001
-25.243122 -40.920006 2.2421534 301.67001
-3.5624764 -5.7749019 -2.1172936 301.67001
-25.256136 -40.941101 3.3637967 301.67001
-3.8921499 -6.3093143 -2.1257153 301.67001
-25.296162 -41.005985 4.4950409 301.67001
-4.2745748 -6.9292388 -2.1313641 301.67001
-25.298717 -41.010128 5.6349349 301.67001
-4.7522149 -7.7035108 -2.1446621 301.67001
-25.331375 -41.063068 6.7807918 301.67001
-5.3512225 -8.6745234 -2.1664398 301.67001
-25.339317 -41.075943 7.9293146 301.67001
-6.1449447 -9.9611759 -2.2051616 301.67001
-7.2869396 -11.73433 -2.2693629 301.84
-8.792243 -14.158357 -2.3422832 301.84
-11.233047 -18.088842 -2.4900386 301.84
-13.292432 -21.405117 -2.3507233 301.84
-15.548994 -25.038912 -2.0610247 301.84
-2.4993408 -4.0247474 -2.1093361 301.84
-25.158903 -40.513973 -2.2239859 301.84
